# .PCD v0.7 - Point Cloud Data file format
VERSION 0.7
FIELDS x y z rgba
SIZE 4 4 4 4
TYPE F F F U
COUNT 1 1 1 1
WIDTH 1118
HEIGHT 1
VIEWPOINT 0 0 0 1 0 0 0
POINTS 1118
DATA ascii
0.028837526 -0.23400705 0.7926001 5321767
0.033216827 -0.23516336 0.79716682 4730663
-0.092215046 -0.22624071 0.79673702 2430489
-0.085842654 -0.22392952 0.79219365 2758427
-0.075238094 -0.22044763 0.79000008 2166286
0.028274285 -0.22550544 0.79223526 5387564
0.032243434 -0.22518925 0.79720014 5453357
-0.083796069 -0.21574749 0.79541939 2627100
-0.07487683 -0.21482976 0.79208511 1904155
-0.06551487 -0.21463744 0.79164118 2823960
-0.059701428 -0.21310905 0.79350001 4596258
0.02813804 -0.21455216 0.79341179 5321523
0.032463979 -0.21509412 0.79705894 5978940
-0.08213035 -0.20819838 0.79742867 4597813
-0.075108245 -0.20555072 0.79341465 4531755
-0.06562084 -0.20523371 0.79145467 4728107
-0.05973905 -0.20870857 0.79400003 6503489
0.026342692 -0.20540746 0.7927649 5321517
0.031281665 -0.20588978 0.79624999 5978931
-0.082476191 -0.19215295 0.79657149 7030849
-0.075392269 -0.19549815 0.79181832 6176309
-0.068394288 -0.19652642 0.79025 6701632
0.027139472 -0.19487026 0.79229641 5978929
0.031834971 -0.19479254 0.79585731 6110516
-0.083671615 -0.18462399 0.79488015 7425089
-0.078440823 -0.18711621 0.7908572 7161659
0.02719561 -0.18505043 0.79307705 6176561
0.032548577 -0.18452439 0.79694134 6176812
-0.085275277 -0.17533915 0.7934401 7622211
0.02730822 -0.17516489 0.79392588 5847341
0.03215548 -0.17556857 0.79675013 5847339
-0.091869079 -0.16434911 0.7972002 6767432
-0.087191761 -0.16547139 0.79240006 7227714
0.026899731 -0.16438642 0.79385722 5452849
0.031126533 -0.16473961 0.79714292 5453612
-0.092039898 -0.15508705 0.79482365 6043444
-0.088547617 -0.15646534 0.79060006 6636357
0.025779111 -0.15510796 0.79375774 5321515
-0.091200009 -0.14516002 0.79800004 5583676
-0.087569371 -0.14360112 0.79150003 6044988
0.023286669 -0.14509842 0.79283345 5124133
-0.093031868 -0.1346886 0.79757911 6836563
-0.087317444 -0.1352921 0.79192311 5716011
0.018104384 -0.13320495 0.792 5058090
0.022186406 -0.13606071 0.79572743 4993064
-0.092720009 -0.12996 0.79800004 6639432
-0.086102627 -0.12476944 0.79358339 4993070
0.016453605 -0.12535828 0.79361916 4992806
0.020520002 -0.1292 0.79800004 5189673
-0.084715456 -0.11533614 0.79264301 3875366
0.0077669402 -0.11223117 0.79242861 4532001
0.012975532 -0.11699431 0.79415393 4664611
-0.083219729 -0.10550804 0.79287994 3880279
-0.0025944975 -0.10140636 0.79133338 4662557
0.0048251976 -0.10571381 0.79434294 4532259
-0.08050476 -0.098561905 0.79000002 8160990
-0.076536089 -0.094770163 0.79044449 7105675
-0.012832518 -0.092748992 0.7927143 4071708
-0.0068137427 -0.096077695 0.79528588 4268824
0.00076000002 -0.09956 0.79800004 4662813
-0.06452091 -0.085192844 0.79438108 3020316
-0.055394121 -0.082539059 0.79381818 3085585
-0.045437843 -0.08194527 0.7942667 3348242
-0.034667708 -0.082719304 0.79290915 3151636
-0.024691693 -0.084279962 0.79372239 3151635
-0.016108738 -0.087346338 0.79573923 3742745
-0.0098800007 -0.088160008 0.79800004 4005146
-0.041800003 -0.079800002 0.79800004 2888464
-0.03490413 -0.079666674 0.79666674 2954255
-0.027324762 -0.079193339 0.79700005 2888460
-0.28294668 -0.002122286 0.79479998 8876173
-0.27513468 -0.0026034785 0.79452175 7692924
-0.26463547 -0.0024185036 0.79466677 6179939
-0.25537419 -0.0029778024 0.79623091 4798800
-0.24725811 -0.0013285717 0.79700005 4864844
-0.29286167 0.0074777496 0.79272729 7692661
-0.28601179 0.0035622518 0.792 6245728
-0.27449366 0.0013793651 0.79000008 7955319
-0.2651684 0.0019566983 0.79053336 6048348
-0.25459144 0.0035701396 0.79096782 4996938
-0.24483159 0.0048814919 0.79217404 4207430
-0.23469625 0.006044012 0.79600018 3746363
-0.22490573 0.0070028589 0.79800022 3155511
-0.21560538 0.0062425393 0.79744464 3812413
-0.20530614 0.0078000012 0.79688007 4206153
-0.19988 0.0076000001 0.79800004 3286064
-0.017045716 0.005537143 0.79800004 3417662
-0.29700142 0.012814762 0.79150003 9994148
-0.24076191 0.011285715 0.79000002 4404815
-0.23374858 0.014780618 0.79235315 3022903
-0.22515436 0.015160635 0.79600006 3023152
-0.21505454 0.0150258 0.79468572 3943234
-0.20478188 0.015090616 0.7924763 4140867
-0.19899666 0.015800793 0.79650009 2627113
-0.23091336 0.022845715 0.7930001 2694185
-0.22523028 0.024806686 0.79390705 2563368
-0.21577334 0.024273055 0.79070604 3220788
-0.20345692 0.023646109 0.79025018 3417400
-0.19859779 0.025244445 0.79516673 2366249
-0.042860474 0.025968669 0.79510009 5193556
-0.036066834 0.026081959 0.79428583 3877436
-0.02888 0.029640002 0.79800004 4665661
-0.2236338 0.035091862 0.79262871 1510937
-0.21624701 0.034580112 0.79136008 2957871
-0.19766381 0.035510797 0.79340011 2431270
-0.15124001 0.038760003 0.79800004 4795665
-0.14668003 0.038760003 0.79800004 5912354
-0.13528 0.038760006 0.79800004 6244436
-0.054306149 0.037405387 0.79386216 4338495
-0.04613997 0.034063928 0.79208004 4009531
-0.03295318 0.033586968 0.7911579 4140863
-0.024944529 0.035519481 0.79370731 4799308
-0.016081205 0.037073687 0.79621065 4142400
-0.0053130616 0.03793782 0.79671443 4469305
0.0055845245 0.037136555 0.79487509 5982808
0.014496761 0.036727238 0.79680014 5786203
0.020520002 0.038760003 0.79800004 6313068
-0.22234906 0.042883098 0.79174995 1051152
-0.21853499 0.043361094 0.7908572 1314065
-0.19448197 0.044599615 0.793773 3221038
-0.18711607 0.047944628 0.7972858 3747124
-0.16349502 0.047974996 0.7980001 5718329
-0.15449584 0.045567948 0.79708582 6243900
-0.14503141 0.044565804 0.79506683 5913139
-0.13510439 0.044859491 0.79488903 6242871
-0.1255749 0.045331161 0.79590499 6111028
-0.11515412 0.047467709 0.79690927 6109998
-0.10667787 0.048973575 0.79725003 8612196
-0.081320003 0.049400002 0.79800004 5653583
-0.074967042 0.048011433 0.79630786 5654614
-0.063942648 0.042429421 0.79399997 5194317
-0.054171432 0.041380953 0.79000002 2892586
-0.014212755 0.0426386 0.79278278 3352375
-0.0058212932 0.042347953 0.79207164 4667716
0.0067809531 0.04257502 0.79082352 5325136
0.015207247 0.044464111 0.7933659 5390672
0.024822125 0.045199711 0.79531837 7759474
0.034851003 0.045059483 0.79465014 7297892
0.043822542 0.047610477 0.79633343 5324880
0.050920002 0.049400002 0.79800004 4012891
-0.19191059 0.053722806 0.7905882 3418421
-0.18518388 0.05525475 0.79482365 3681082
-0.17515749 0.057290573 0.79729038 4271658
-0.16509986 0.055189691 0.79636395 7362908
-0.155178 0.05514105 0.79372102 6769991
-0.1457444 0.053270549 0.79038483 6309689
-0.13474004 0.051938597 0.79038095 6769980
-0.12438226 0.052641146 0.79192001 5651515
-0.11498103 0.053960167 0.79234296 6177589
-0.10485817 0.054952573 0.79331934 6770239
-0.095061503 0.055302653 0.79409313 6375231
-0.085140102 0.055591445 0.79430008 5456977
-0.07791651 0.052737147 0.79299998 5588556
0.01657524 0.050473332 0.79100007 5983070
0.02568995 0.050800636 0.79088891 8154218
0.035669591 0.051320884 0.79013342 6575465
0.045597367 0.054848053 0.79343605 5851997
0.053870991 0.056396075 0.79666674 5655134
0.062320005 0.05776 0.79800004 6771559
0.075205617 0.058602594 0.79670602 8483715
0.084755696 0.058808003 0.7950666 8812426
0.095114626 0.058602132 0.79670596 8087674
0.10371666 0.058686197 0.7968334 6246763
-0.1903524 0.060942858 0.79000002 2434089
-0.18380044 0.063192859 0.79150003 3088688
-0.17510931 0.065521136 0.79319167 3481640
-0.1646098 0.065429866 0.79239017 6374971
-0.15644929 0.064209603 0.79008353 5124911
-0.10247429 0.06124381 0.79000002 7822943
-0.096304767 0.060942858 0.79000002 6376264
-0.087276191 0.060942858 0.79000002 6244956
0.047847625 0.062254697 0.79028577 7888753
0.055330787 0.064967051 0.79286367 6640482
0.065073781 0.064070672 0.79341465 7824753
0.074657299 0.064356953 0.79310542 7758446
0.085175186 0.063850507 0.79103041 8219254
0.095199533 0.064372391 0.79175019 7101288
0.10482644 0.065144092 0.79517066 4865351
0.11142001 0.065331429 0.79766673 3352638
0.12979715 0.06831333 0.79700005 4996941
0.13562301 0.066320442 0.79692316 4535366
0.14168127 0.066218093 0.79766673 3945018
0.16577923 0.067156099 0.79657155 4471112
0.17497325 0.065734684 0.79651421 3352113
0.18502721 0.066352189 0.79612917 6444136
0.19499451 0.065499879 0.79666692 6048602
0.20173842 0.068595558 0.79733342 7563621
-0.17274493 0.072313078 0.79018188 3615796
-0.16505942 0.073379308 0.79025024 4993322
-0.15875238 0.072228573 0.79000002 8085863
0.05492381 0.071476191 0.79000002 7957623
0.10580558 0.074730322 0.79376203 3417905
0.11248001 0.075240009 0.7980001 2891811
0.12753111 0.075760163 0.79550004 5194578
0.13474911 0.074941792 0.79485732 3747390
0.1417529 0.075456001 0.79706687 2827050
0.1566077 0.07643231 0.79612911 3484471
0.16498335 0.074936256 0.79408902 3549498
0.17465799 0.074468419 0.79259586 4799820
0.18419522 0.07285437 0.7912904 4011072
0.19456314 0.071477883 0.79199994 6115427
0.2058432 0.072700314 0.79316676 6574691
0.21465786 0.075271212 0.79425812 6048864
0.22148192 0.079226673 0.79733342 9929628
0.10711356 0.085181348 0.79296559 3482409
0.1145841 0.086340971 0.79678279 3943738
0.12463532 0.085002586 0.79367584 5128013
0.13434605 0.085151292 0.79335004 3286065
0.14504749 0.085687034 0.79738903 2826802
0.15516016 0.085525177 0.79473484 3353400
0.16471691 0.084840134 0.79227918 4602185
0.1725962 0.080805711 0.79000002 3615806
0.21705715 0.081188954 0.79080003 9667474
0.225789 0.083103269 0.79328573 8153732
0.23212235 0.08503788 0.79333341 11247011
0.10717952 0.095100008 0.79250002 4009793
0.11522526 0.094435297 0.79386365 5062477
0.12113333 0.091790482 0.79000002 4535881
0.13512021 0.095079273 0.79477793 2036259
0.14476475 0.094899893 0.79637504 2826537
0.15389502 0.094622307 0.79258835 2694705
0.23638764 0.095157146 0.7930001 11706010
-0.2294762 0.10909524 0.79000002 722953
0.10815082 0.10253178 0.79109091 4798547
0.11344885 0.10289713 0.7912727 4667467
0.13246901 0.10407259 0.79377776 1970979
0.14524937 0.10487238 0.79502237 2300709
0.15198565 0.10180416 0.79181832 3616320
-0.23373483 0.11598354 0.79161304 722956
-0.22679369 0.11539657 0.79139996 1051406
0.13547122 0.11613905 0.79461551 1249043
0.14320186 0.11491742 0.79420012 2432293
-0.24000953 0.1226381 0.79000008 460044
-0.2340208 0.12290701 0.79527277 1116945
-0.22452044 0.12523602 0.79500014 1117200
-0.21533802 0.12672952 0.79448014 854029
-0.20489006 0.12526201 0.79563653 985359
-0.19717884 0.12522626 0.79155546 919823
0.13730726 0.12447488 0.79215389 854298
0.14191586 0.12390106 0.79188234 2630443
-0.20159075 0.13515215 0.79725003 920333
-0.19743581 0.1355506 0.79237497 1511957
0.1372842 0.13466808 0.79178947 459785
0.14343284 0.13510089 0.79247624 394249
-0.20190765 0.14497811 0.79700017 2036515
-0.1976219 0.14462924 0.79328579 2891830
0.12720163 0.14682625 0.79246151 1116679
0.13265508 0.1441443 0.79516673 722697
0.14555429 0.14024763 0.79600006 591626
-0.20265509 0.15570015 0.79638112 2628641
-0.19774923 0.15399748 0.792 2563113
0.11968914 0.15582323 0.79040003 1051412
0.12466047 0.15445292 0.79540753 1051148
0.14878319 0.15706255 0.79033339 197122
0.15122858 0.15724762 0.79000002 525574
-0.20302211 0.16141297 0.79720008 2299673
-0.19595209 0.16534446 0.79033339 1970972
0.11978 0.16121238 0.79100001 1116948
0.1235231 0.165085 0.79428583 985615
0.14864898 0.16348164 0.79000008 131585
-0.19384573 0.17421581 0.79285723 1772824
0.11962857 0.17680953 0.79000002 1182991
0.12513018 0.17588714 0.79400009 985612
-0.20677334 0.18737653 0.79333341 2365218
0.12567276 0.18490492 0.79461122 788231
0.13173333 0.18620002 0.79800004 459778
0.11751691 0.19693311 0.79225004 722441
0.12393691 0.19507366 0.79600006 591367
0.11555678 0.20433524 0.79478276 591110
0.12197882 0.20241119 0.79675001 460035
0.11572572 0.21596001 0.79333341 919823
0.1228143 0.21833143 0.796 1116430
-0.24239019 0.2259438 0.79700011 5983802
-0.23659892 0.22573394 0.79337496 2695201
0.11721589 0.22312318 0.79177785 525828
0.12381998 0.22394504 0.79524142 460035
-0.23338746 0.23338908 0.79650009 1051406
-0.22574037 0.23516649 0.79573929 1249041
-0.2190181 0.23412476 0.79300004 2366742
0.11229429 0.23177238 0.79400003 656394
-0.05281366 -0.32146668 0.80366671 5130321
-0.047726668 -0.32097673 0.80271429 4669766
-0.024176192 -0.32201761 0.80600005 2298647
-0.01513746 -0.32179302 0.8083334 2365978
-0.0038476193 -0.32164574 0.80700004 2825503
0.002090204 -0.32193214 0.80785728 2823702
-0.063812204 -0.31209657 0.80372745 4536628
-0.054286372 -0.31571132 0.80143762 1445916
-0.046868324 -0.31697413 0.80146688 986130
-0.031999998 -0.3192381 0.80000001 2297878
-0.024585715 -0.31791285 0.80050004 2234135
-0.016037038 -0.31740364 0.8017779 2300701
-0.0032033613 -0.31665298 0.80435312 3088674
0.0046843039 -0.31420302 0.80429637 3680551
0.015059307 -0.31204289 0.80900002 4007975
0.020802857 -0.3105019 0.80900002 4469025
-0.062113874 -0.30673984 0.80268764 2168352
-0.058666669 -0.30552381 0.80000001 1510424
0.008081153 -0.30514345 0.80194747 4929851
0.015268125 -0.30503917 0.80605876 4206389
0.02131651 -0.30613589 0.80900002 3614238
-0.071477145 -0.29128858 0.80700004 10454182
-0.063914619 -0.29458025 0.80403852 6506821
-0.057153333 -0.29599851 0.800143 4730156
0.0093968259 -0.29790479 0.80000007 9336179
0.015942186 -0.29560241 0.80262959 11441832
0.02390423 -0.29356003 0.80666679 10652830
0.032552619 -0.29104736 0.80900002 5061456
-0.074467659 -0.28448167 0.80481488 7558744
-0.068036199 -0.286387 0.80116677 5979446
0.018447621 -0.28768724 0.80039996 14533576
0.025252482 -0.28503838 0.80334997 13414067
0.035124429 -0.2847971 0.80664289 4665406
0.042496197 -0.2832205 0.80883336 2101779
-0.081545897 -0.2745944 0.80845463 6636604
-0.075646915 -0.27563167 0.80333334 6439483
0.029714286 -0.27809525 0.80000001 9203811
0.036120184 -0.27555981 0.8016538 3811618
0.04463375 -0.27511275 0.80618751 1182218
0.050080951 -0.27428955 0.80900002 985604
-0.082371801 -0.26477319 0.80661118 6504770
-0.077097803 -0.2673201 0.80150002 6505273
0.037757747 -0.26665854 0.80018193 2166808
0.044210885 -0.26546428 0.80364865 1116938
0.050080951 -0.26889619 0.80900002 723201
-0.084385246 -0.25534871 0.80637515 6899783
-0.079999998 -0.25828573 0.80000001 6373953
0.044830326 -0.25496289 0.80356753 920328
-0.086419687 -0.24650604 0.80300009 7492950
0.038619369 -0.24289367 0.80033344 1575696
0.043200038 -0.24546084 0.80510002 1051656
0.037777141 -0.23463723 0.80222237 3285020
0.042966455 -0.23542278 0.80714828 1181714
-0.095977575 -0.22430676 0.80364007 4602700
0.03699543 -0.22521973 0.80448014 5322536
0.042263623 -0.22532173 0.80830002 2167059
-0.09269695 -0.21580073 0.80578959 3546926
-0.088090405 -0.21344411 0.80107707 2757152
0.036998529 -0.21473821 0.80318201 6769216
0.042055715 -0.21547097 0.80837506 3021600
-0.090145715 -0.20109428 0.80900002 6770006
-0.085786127 -0.20484705 0.80294108 5584696
-0.079999998 -0.20114286 0.80000001 5648699
0.036067773 -0.20492208 0.80238706 6636856
0.042422 -0.20433982 0.80690014 2890264
-0.091751225 -0.19434614 0.80655557 7951687
-0.086025439 -0.19556901 0.80248153 7097160
0.036708057 -0.19499539 0.80292314 6176823
0.042045612 -0.19475004 0.80755568 3087136
-0.092816897 -0.18405752 0.803316 6701892
-0.088425525 -0.18569373 0.80040008 7425600
0.037130903 -0.18533711 0.80215019 6636861
0.042439368 -0.18438549 0.80855554 5981237
-0.093820922 -0.17516561 0.80696434 5911353
-0.089142852 -0.17828572 0.80000001 7623492
0.036839303 -0.17460598 0.80196154 6308658
0.043488957 -0.17498258 0.8077333 6111798
-0.095238097 -0.16304761 0.80000001 5718593
0.036022976 -0.16514227 0.80357563 5519921
0.043680318 -0.16591941 0.8078149 5388333
-0.094341278 -0.15079081 0.80100006 5782327
0.029424382 -0.15199886 0.80040008 5256238
0.035141673 -0.15507528 0.80407304 5453868
0.040835235 -0.15948857 0.80900002 5782845
-0.094641969 -0.14533329 0.80245841 8744307
0.02833564 -0.14480162 0.80178958 5322023
0.03402992 -0.14555678 0.8063103 5651244
-0.095595248 -0.13995144 0.80300003 10062729
0.026722498 -0.13480337 0.80345839 5256235
0.031476378 -0.13509582 0.8087334 5848372
-0.092682272 -0.12455499 0.80195659 6705752
-0.089142852 -0.12190476 0.80000001 4073001
0.018567462 -0.12258905 0.80116671 5059106
0.024441347 -0.12503327 0.80494869 5387815
0.030048572 -0.12866952 0.80900002 5848620
-0.092691123 -0.11873493 0.80433339 11506054
-0.089232005 -0.11363962 0.80079997 5523278
0.01628178 -0.11423607 0.80360001 4992801
0.022180479 -0.11704651 0.80766678 5256744
-0.088493727 -0.10805678 0.80240005 14672368
0.0074275518 -0.10210253 0.802643 4532251
0.013648342 -0.10600773 0.80500013 4533278
-0.0031545756 -0.093287833 0.8026523 4334621
0.0034968958 -0.095958978 0.80514818 4400671
-0.072122656 -0.086223595 0.80277777 5455162
-0.06861154 -0.085573442 0.80144447 4006952
-0.053601909 -0.080400005 0.80400002 2363663
-0.048120003 -0.080200009 0.80200005 2953999
-0.021132698 -0.080707937 0.80200005 3020048
-0.014537433 -0.082818598 0.80360878 3545364
-0.0064786593 -0.086953469 0.80540919 3808789
-0.052567817 -0.078314103 0.80460006 2233105
-0.044740714 -0.077549957 0.80305016 2494476
-0.035315353 -0.077620797 0.80511779 2756880
-0.024803542 -0.078782044 0.80314296 3020046
-0.01691762 -0.079211906 0.8075 3151631
-0.062408566 -0.021573333 0.80900002 3877425
-0.058556192 -0.020802857 0.80900002 4204586
-0.27439484 -0.011856764 0.80840009 8284026
-0.26499748 -0.012094115 0.80736369 7824244
-0.25471145 -0.012313334 0.80800009 6442852
-0.24479543 -0.011092 0.80880004 5654098
-0.23576573 -0.010016192 0.80900002 4470603
-0.22347921 -0.012966374 0.80807704 4863810
-0.21819842 -0.012565397 0.80766672 4270141
-0.20341049 -0.012124287 0.80825007 6114913
-0.19728844 -0.012451272 0.80866671 3811133
-0.062408574 -0.019261904 0.80900002 2495533
-0.05650159 -0.018748254 0.80900002 3415077
-0.29212734 -0.0012752383 0.80366671 7298164
-0.28435323 -0.0048844768 0.8009001 9270421
-0.27431682 -0.0075709061 0.80255014 7757946
-0.26563221 -0.0077425269 0.80217403 6113378
-0.25437966 -0.0079759229 0.80192 6377570
-0.24486685 -0.0057234834 0.80307883 5259344
-0.23504724 -0.0046556345 0.80353636 4338501
-0.22481926 -0.0051894379 0.80354548 3811896
-0.2151171 -0.0049243174 0.80422229 3548987
-0.20455216 -0.0052598151 0.80514634 5522003
-0.19708286 -0.0048284703 0.805893 3285811
-0.012206667 -0.00076285715 0.801 6377047
-0.0049875462 -0.0014695971 0.802154 3285809
0.0052318098 -0.0059273331 0.80820006 2035742
-0.29561827 0.002556032 0.80483341 7889265
-0.24228571 0.00076190475 0.80000001 4599105
-0.23593652 0.001015873 0.80000007 4206145
-0.22534552 0.001879619 0.8002668 3417398
-0.2132597 0.0016531746 0.80116677 3417909
-0.20489299 0.0025171905 0.80125016 4602445
-0.19696109 0.004907988 0.80332249 2496551
-0.032160953 0.0099542867 0.80400002 3088959
-0.027002437 0.0087740757 0.80500013 2757670
-0.013186071 0.0037291674 0.80262506 3483702
-0.006580228 0.0032173335 0.80364013 2233124
-0.1967223 0.01537648 0.80539131 2037024
-0.15024287 0.019261904 0.80900002 3347984
-0.14870191 0.019261904 0.80900002 2690054
-0.034360074 0.015894152 0.80300009 2693667
-0.026829017 0.015334858 0.80500007 3155747
0.012327619 0.019261904 0.80900002 4472127
-0.19410376 0.024968401 0.80461538 2300195
-0.18587881 0.02681856 0.80742419 3352884
-0.17452231 0.026870672 0.80773324 3484214
-0.16491194 0.028112425 0.80734795 4204836
-0.15461949 0.025870865 0.80618924 6769729
-0.14516564 0.025537282 0.80648917 7362906
-0.13541928 0.027423445 0.80684626 5124891
-0.12872095 0.029065335 0.80740005 4531992
-0.053045113 0.028161645 0.80718189 5062742
-0.047210481 0.026154444 0.80383343 4799052
-0.032932729 0.022394374 0.8008182 2562346
-0.02526038 0.025259495 0.80388898 3483441
-0.01518682 0.026827801 0.80648381 3090225
-0.0050462591 0.02758551 0.80628568 4010554
0.0055758362 0.025888564 0.80467439 4470084
0.015212179 0.025187684 0.80511618 4668230
0.023933848 0.025729828 0.80762857 4207682
0.032360002 0.02850762 0.80900002 5915992
-0.19291925 0.034881771 0.80207407 3154735
-0.18469939 0.035146825 0.80518627 3615544
-0.17494166 0.035126206 0.80516225 3154216
-0.1650091 0.035036873 0.80350006 7362132
-0.15506007 0.035102978 0.80223674 8479849
-0.14493844 0.034655806 0.80203128 7165002
-0.13509913 0.03450479 0.80219442 5718329
-0.12486118 0.034783352 0.80478269 5125162
-0.1155973 0.03667656 0.80753851 6177333
-0.10542333 0.038090482 0.80800003 7756894
-0.099391431 0.039294288 0.80900002 917514
-0.082999736 0.037485994 0.80800015 5061198
-0.074886598 0.036396734 0.80707145 4732488
-0.064821318 0.035789445 0.80573529 5062470
-0.056304026 0.032311324 0.80366683 5521748
-0.049523808 0.031238094 0.80000001 4866379
-0.022857144 0.031238094 0.80000001 4141375
-0.014509948 0.033091854 0.80188906 3287095
-0.0053460882 0.033600863 0.80189294 4602181
0.0044809533 0.032420479 0.80100006 5259339
0.016126132 0.032820418 0.80143762 5129814
0.02533092 0.035065688 0.80351216 4602956
0.035019655 0.034311511 0.80495453 7627121
0.04445935 0.036106363 0.80568755 8284787
0.054075558 0.037475139 0.8085556 7495793
-0.19139621 0.040414609 0.80066669 3221040
-0.18445666 0.043958843 0.80199993 3812666
-0.17539993 0.04500236 0.80279541 3614251
-0.1658317 0.043629594 0.80093324 6967886
-0.15727893 0.04103402 0.80000007 8019548
-0.14095238 0.040380955 0.80000001 9532796
-0.12275375 0.041280549 0.80057156 8020583
-0.11504407 0.042596452 0.80203843 5452838
-0.10465702 0.044213422 0.80330002 8480355
-0.095209017 0.045682918 0.80385351 5850181
-0.085173242 0.044907618 0.80304545 5127239
-0.075451434 0.043476257 0.80193114 5128014
-0.067871004 0.042166408 0.80236375 5719376
0.026666665 0.040380955 0.80000001 6839142
0.03631746 0.040888891 0.80000007 7626592
0.045728423 0.04313045 0.80110002 6246234
0.055277701 0.045098513 0.80470717 5720145
0.064259999 0.04683296 0.80790323 5852507
0.073615491 0.047839567 0.80900002 5720923
0.096647859 0.049379289 0.80700004 9469066
0.1054635 0.048471641 0.80521065 8482944
0.11542933 0.047361102 0.80715382 6509161
0.13787782 0.047234699 0.80557162 4929355
0.14439872 0.046080388 0.80647069 4799814
0.15672651 0.048134129 0.80866671 4734535
0.16514508 0.047756232 0.80737042 4275797
0.17419189 0.046983279 0.80772001 4734285
0.18364097 0.048509046 0.80850005 6048367
0.19432478 0.048965141 0.80839998 6180970
-0.18133333 0.051047619 0.80000001 3352379
-0.17539552 0.052181907 0.80071443 3285539
-0.092190489 0.051047619 0.80000007 3286052
-0.087619051 0.051047619 0.80000007 4141642
0.056686673 0.052521653 0.80136371 4931400
0.065342061 0.054510847 0.8024444 7036010
0.075216852 0.053237975 0.80587488 6970477
0.085222095 0.054012623 0.8053714 7299705
0.09476649 0.053727109 0.80293334 7035748
0.10491887 0.053799115 0.80074185 5916240
0.11460309 0.055006322 0.80219442 5917770
0.12253197 0.05582463 0.80771434 5588557
0.13560066 0.055217914 0.80423808 5260117
0.14539826 0.055094868 0.8035 4602441
0.1550902 0.054784451 0.80563635 3812409
0.16480684 0.054894038 0.80315387 3944000
0.17512131 0.055031054 0.80397552 5522783
0.18482539 0.054279987 0.80437785 6312554
0.1950718 0.054923322 0.80460972 4865621
0.20401521 0.0567136 0.80633336 8351614
0.21136731 0.05829937 0.80900002 7166070
0.064761907 0.060190476 0.80000001 9797515
0.11589155 0.064297117 0.80167854 4536136
0.12507498 0.065396637 0.80551046 5062221
0.13388371 0.062237643 0.80114305 5391960
0.1462141 0.064270385 0.80209994 2497569
0.15528668 0.065019794 0.80322456 2760749
0.1645346 0.062946036 0.80133343 4470340
0.17419124 0.060707808 0.80080003 5323356
0.18497355 0.061460324 0.80000013 3483963
0.19597398 0.060748566 0.80066669 8285050
0.20548269 0.064355753 0.80223519 5851998
0.21455948 0.065581977 0.80502492 8482944
0.22295406 0.068806425 0.80725014 10390946
0.11708211 0.075102858 0.80140001 3681080
0.12312371 0.074247517 0.80188876 4668496
0.14662263 0.074837476 0.80183351 1380637
0.15310876 0.073716037 0.80156529 3221814
0.21694744 0.071197331 0.80039996 9009787
0.22483954 0.074872486 0.80251724 8285831
0.23318444 0.076671332 0.80600011 11508127
0.11748094 0.082810909 0.80100006 4995900
0.12190476 0.081523813 0.80000007 5523537
0.14621645 0.081800863 0.80000013 2170410
0.22726214 0.080837384 0.80075002 11179954
0.23398465 0.081051074 0.80287504 10653077
0.13789631 0.10554159 0.80044454 985106
0.14095238 0.10742857 0.80000007 459802
0.1374585 0.11349389 0.80105889 787981
0.14095238 0.112 0.80000007 853784
-0.23431067 0.12692241 0.8032729 2628638
-0.22933334 0.1287619 0.80000001 1511202
-0.2087619 0.1287619 0.80000001 722953
-0.23314559 0.13351043 0.80473357 2300706
-0.22485936 0.13386527 0.80354178 1182996
-0.21442509 0.13433473 0.80419356 788239
-0.20657356 0.13513002 0.80290496 985869
0.14295048 0.13989335 0.80266666 131586
-0.21034001 0.14407906 0.80900002 1314581
-0.20693503 0.14480202 0.8028751 1445655
0.13698022 0.1462726 0.80350012 722185
0.14389229 0.14343458 0.8071 394245
-0.21034001 0.15178381 0.80900002 1577236
-0.20614032 0.15199873 0.80066675 2037277
0.12828115 0.15817752 0.80079997 920073
0.13323681 0.15516198 0.80535305 722699
-0.20426054 0.16724734 0.80714297 1970964
0.12810813 0.16504498 0.80030781 722697
0.13302565 0.16540062 0.80609101 591113
-0.20238928 0.1739274 0.80762511 1314063
-0.19873112 0.17725049 0.80566669 1773333
0.12876192 0.17295238 0.80000007 722445
0.13449347 0.17491388 0.8043611 656906
-0.21366286 0.18983716 0.80700004 2233121
-0.20076287 0.18230066 0.80766672 2167836
-0.19845526 0.18230066 0.80766672 2168095
0.13570778 0.18265896 0.80447072 525573
-0.21366286 0.19137429 0.80700004 2101535
0.12847428 0.19568764 0.80200005 394246
0.13137525 0.19401 0.80200005 393989
0.12771523 0.21948668 0.80300003 1051659
-0.24304762 0.22933334 0.80000007 5060134
0.12785333 0.22139113 0.80066669 722696
-0.24454486 0.23535326 0.8045001 3681832
-0.23688054 0.23677766 0.80146682 1182484
-0.25040478 0.24347049 0.80900002 7036234
-0.24409993 0.24396393 0.80830443 1905936
-0.23471324 0.2432538 0.80204558 2695459
-0.22962001 0.24258953 0.801 4142127
-0.24347049 0.25040478 0.80900002 2498342
-0.021733336 -0.33143336 0.81500006 5260872
-0.022997146 -0.32805434 0.81388897 3681079
-0.015040137 -0.32569689 0.81285709 3023395
-0.0051045716 -0.32456478 0.81180012 3089177
0.0065220413 -0.32209104 0.81214291 2891290
0.013504128 -0.32265782 0.81833339 4797744
0.014962329 -0.31651163 0.81255549 4665903
0.024018733 -0.31211483 0.81322223 5060652
-0.080340013 -0.30342004 0.81900012 9141620
-0.075232133 -0.30226919 0.81700015 8087646
-0.068137147 -0.30119717 0.81300002 15323323
0.025143933 -0.30493802 0.81368756 4073770
0.034060247 -0.30309039 0.81682622 4335910
0.041792702 -0.30188864 0.81766671 6046781
-0.075043604 -0.2963258 0.8166523 13281981
-0.068826668 -0.29850763 0.81200004 14332132
0.026375556 -0.29786551 0.81188899 5917264
0.035408717 -0.29521105 0.81151843 4271920
0.044236667 -0.29411596 0.81358349 5784881
0.05224232 -0.29172999 0.81871444 4271911
-0.083074614 -0.28172353 0.81266677 13083085
0.038619049 -0.28964287 0.81100005 4467251
0.045910306 -0.28634495 0.81200004 2825498
0.054105923 -0.28550267 0.81650013 2955542
-0.085936517 -0.27440223 0.81288892 9204578
0.054741293 -0.27421641 0.81435734 1511176
-0.091743052 -0.26329947 0.81360006 9334886
-0.087498091 -0.26522148 0.81217641 6966077
0.048660003 -0.26260954 0.81100005 722953
0.053589579 -0.26542893 0.81608588 920073
-0.092207819 -0.25493908 0.81290001 7821653
-0.088205911 -0.25550365 0.81099999 7228239
0.048660003 -0.25102383 0.81100005 1051659
0.052439503 -0.25492474 0.81595248 1051660
-0.091787241 -0.2484227 0.81260008 8610401
-0.088823818 -0.24870667 0.81100005 7952992
0.048066355 -0.24445111 0.81183332 919560
0.052088972 -0.24487656 0.81626326 919563
-0.10257 -0.23127003 0.81900007 13023679
0.047727849 -0.23459587 0.81130767 788235
0.051512025 -0.23519062 0.81637514 788237
-0.10245468 -0.22744516 0.81620008 14273747
-0.099250957 -0.22476287 0.81100005 11445163
0.047155246 -0.22494797 0.81166667 1051149
0.050638098 -0.22592573 0.81800008 1051145
-0.096076928 -0.21386024 0.81241173 5981529
0.04684199 -0.21493152 0.81400001 1248522
0.050700005 -0.21138002 0.81900007 1182991
-0.092972398 -0.20590149 0.81547064 6571087
0.047127731 -0.20493016 0.81266665 1641743
0.050514288 -0.20827715 0.81600004 1641997
-0.093573332 -0.19797429 0.81200004 9266564
0.046680592 -0.19472368 0.81490493 1838099
0.050576191 -0.19374573 0.81700003 4069152
-0.098092392 -0.18150952 0.81100005 8088233
0.046481166 -0.18531546 0.81188893 5322803
-0.098843157 -0.17504025 0.81130767 14667745
0.043360002 -0.16105142 0.81300002 5520173
0.039391432 -0.15061429 0.81100005 5715764
0.04176873 -0.15469795 0.81216663 5716789
0.038500298 -0.1435806 0.81223083 5453619
0.041759368 -0.14569557 0.81450003 6636606
0.03571061 -0.13564259 0.81252372 5585968
-0.097023815 -0.12419048 0.81500006 10785423
0.028672066 -0.12165873 0.8136667 5716523
0.032232426 -0.12562452 0.8159526 5848625
0.024480654 -0.11432979 0.81257892 5322536
0.017123591 -0.10482162 0.81438464 4730404
0.022382449 -0.10878953 0.8184287 5322790
0.0060899328 -0.093086936 0.81357157 4466212
0.010741089 -0.097990617 0.8138572 4336416
-0.010813334 -0.081100002 0.81100005 3612176
-0.0036268577 -0.083130471 0.81460011 3940634
0.0029127321 -0.086794138 0.81794757 4203807
-0.041474763 -0.074030951 0.81400001 2430484
-0.034260076 -0.07361491 0.81492883 3020305
-0.024845382 -0.07452739 0.81523538 3480597
-0.014518148 -0.075748861 0.81605273 3808538
-0.0066902861 -0.078293346 0.81720012 4006170
-0.273 -0.021060001 0.81900007 9861525
-0.26315856 -0.021021429 0.8175 7034486
-0.25526816 -0.021791272 0.81716675 6771305
-0.24494648 -0.021957271 0.81753349 6180201
-0.23458239 -0.023310795 0.81808347 5587541
-0.22511737 -0.022631047 0.81650019 5653594
-0.21918002 -0.021060001 0.81900007 4403284
-0.20299502 -0.021645002 0.81900012 5192786
-0.19765201 -0.021684004 0.81900007 4140869
-0.070980005 -0.023400001 0.81900007 3682111
-0.067876004 -0.022992002 0.81540006 3286835
-0.28379536 -0.012485269 0.81580013 8810895
-0.27500302 -0.016737511 0.81569242 9008015
-0.26485717 -0.016690819 0.81485736 8152961
-0.25452599 -0.016927913 0.81346154 6969447
-0.24487256 -0.016032204 0.81350023 5719896
-0.2351383 -0.015450379 0.81300008 4469322
-0.22552265 -0.016966011 0.8124615 4798284
-0.21480045 -0.014928202 0.81505567 3943737
-0.20547651 -0.016296998 0.81461543 5784922
-0.19405055 -0.015434605 0.81546158 3220529
-0.18954001 -0.014560002 0.81900012 2563373
-0.070980005 -0.017160002 0.81900007 1312521
-0.065047726 -0.014686086 0.81411111 1970962
-0.055240337 -0.013445588 0.81262171 2102043
-0.047855716 -0.011817143 0.81375009 1510940
0.02728238 -0.012212859 0.81850022 6904935
0.035249773 -0.013594687 0.81678957 4339270
0.044455044 -0.0128664 0.81772 7494244
-0.28609857 -0.0081309527 0.81300002 8612750
-0.21188986 -0.0079812706 0.81100005 3548733
-0.19243063 -0.0045465431 0.81317395 2037026
-0.18962002 -0.0062228572 0.81600004 1840419
-0.06194286 -0.0085171424 0.81300002 394498
-0.054376449 -0.0075147315 0.81646681 1510671
-0.044996604 -0.0063301143 0.81661916 2496543
-0.037180007 -0.0036400002 0.81900012 3021346
-0.00077238097 -0.0038619051 0.81100005 2364968
0.0031816936 -0.0018034921 0.81233341 2298133
0.027107367 -0.0058569536 0.81633353 2235168
0.033377364 -0.0073704775 0.81792319 1248274
0.044439811 -0.0085758111 0.81860012 4536110
-0.19278812 0.0048972904 0.81500012 1708833
-0.033513717 0.0046741604 0.81833351 1904937
-0.025217056 0.0064200005 0.81554556 3154478
-0.014733742 0.0085291164 0.81414294 1774628
-0.0052297963 0.0070104767 0.81757146 1510681
0.0015514287 0.00077523815 0.81400001 1641745
0.018720001 0.0085800011 0.81900007 1840671
0.025182856 0.0074657165 0.81900018 2037801
0.031200001 0.0085800011 0.81900007 2563117
-0.19279808 0.013957076 0.81279314 2365475
-0.18541254 0.015504643 0.81546152 3877942
-0.17517799 0.016346252 0.81525016 4667200
-0.16505508 0.016066331 0.81500012 4535624
-0.15492842 0.015430478 0.81489486 4666434
-0.14484304 0.015817091 0.815 4335919
-0.13579978 0.017804975 0.81688899 4335138
-0.12722819 0.019033879 0.81814295 4073263
-0.092040002 0.019500002 0.81900007 3879477
-0.084169097 0.01893273 0.81900018 4732236
-0.074218996 0.017923195 0.81829435 4798276
-0.064841941 0.01705274 0.81811124 4272962
-0.055890225 0.01824883 0.81886691 3484735
-0.044215742 0.017729806 0.81782371 3614522
-0.037966669 0.012887091 0.8172223 4864850
-0.021785084 0.014367938 0.81113333 1577235
-0.014734014 0.014733545 0.81434685 1774112
-0.0054025608 0.015664406 0.8175 1445402
0.0051279189 0.015509741 0.81585723 2432043
0.014848085 0.014541741 0.81517011 3286323
0.024828982 0.014732789 0.81466687 3484215
0.033998311 0.015740743 0.8174445 3483962
0.041860007 0.018980002 0.81900012 4667217
-0.19077811 0.020854287 0.81100005 3219251
-0.18436141 0.022042569 0.81099999 3747898
-0.17581324 0.021916313 0.81099993 4076094
-0.16541956 0.022842854 0.81109518 4402744
-0.15808067 0.02136921 0.81100005 4009006
-0.14134572 0.020854287 0.81100005 6968418
-0.13463308 0.022579456 0.8122381 7099470
-0.12479782 0.024515579 0.81443596 5848886
-0.11559747 0.025810419 0.81646669 5389372
-0.10533647 0.027141364 0.81871444 4534584
-0.094674133 0.025470939 0.81848401 4799049
-0.085212536 0.024702203 0.81610537 4995404
-0.074947618 0.024953619 0.81380004 4273476
-0.065049537 0.024777139 0.81311113 3879233
-0.055659756 0.023857083 0.81312501 3944772
-0.047059368 0.022108469 0.81300002 4141129
-0.021626668 0.020854287 0.81100005 2365460
-0.01437962 0.021798288 0.81166661 1970466
-0.0048695239 0.022339106 0.81217647 3023401
0.0026260954 0.02116324 0.81100005 3748668
0.028063178 0.022656512 0.81100005 3616056
0.035111379 0.024379401 0.8134737 5128014
0.044964764 0.025132889 0.81729424 7299180
0.054375589 0.026100479 0.81814295 7890039
0.061308004 0.027612001 0.81900007 6839661
0.13910002 0.028340003 0.81900012 6114653
0.14529075 0.026728481 0.81747627 7890289
0.15303174 0.027414579 0.81884634 6508387
-0.12126382 0.030122858 0.81100005 5058576
-0.11417723 0.032109521 0.81154549 8413525
-0.10454823 0.032944605 0.81435484 5126971
-0.094832554 0.034985378 0.81404543 4929861
-0.08588089 0.033355653 0.81185734 5062221
-0.075199999 0.031418413 0.81122214 4864072
-0.065652385 0.030895242 0.81099999 4930374
0.045866035 0.031177465 0.81166667 8548221
0.055642728 0.032793995 0.81258625 8877700
0.065084241 0.035173565 0.81545013 7626863
0.074967682 0.036678869 0.81625032 7627889
0.084568039 0.037219774 0.81764007 7364462
0.093015008 0.038805008 0.81900012 8679806
0.10998001 0.039000005 0.81900007 6249063
0.11571734 0.036355298 0.81693351 6509155
0.12247016 0.037221022 0.81766677 7364215
0.13657071 0.036068145 0.8178277 4734025
0.14478788 0.035113614 0.8146956 5851227
0.15516651 0.035028197 0.81737196 5259356
0.16489609 0.035719708 0.81731582 8088198
0.17448899 0.036610842 0.81687099 7561325
0.18454637 0.037661362 0.8166191 5060940
0.1938215 0.03907587 0.81877786 8020852
-0.09423048 0.040936191 0.81100005 4928046
0.066323966 0.042240322 0.81133336 7561839
0.075361326 0.043699685 0.81145185 7166567
0.085150041 0.044891436 0.81277794 7824492
0.094695218 0.044864841 0.81517148 9403275
0.10508324 0.044168431 0.81592315 9468816
0.1147861 0.04254305 0.81220001 7166825
0.12553626 0.045354951 0.81560618 5524312
0.13431349 0.044299331 0.81441188 4734282
0.14591688 0.041200683 0.8118571 5784661
0.15476827 0.044067621 0.81280017 5983833
0.16503058 0.042475145 0.81239998 5324624
0.17616054 0.042600423 0.81166661 5917021
0.18535377 0.044620916 0.81190324 6707313
0.19474623 0.044218946 0.8146776 8088181
0.20485544 0.045598995 0.8162002 7167347
0.21169202 0.047268003 0.81900007 6050394
0.084961906 0.050204765 0.81100005 8219513
0.12656161 0.054510903 0.81251723 4997709
0.1314979 0.052477781 0.81166673 4996678
0.2062525 0.052573614 0.81252933 7233146
0.21506724 0.055023521 0.81524253 9666705
0.2233882 0.057231199 0.81794131 8021884
0.12512574 0.061018094 0.81100005 5852749
0.21858382 0.061018094 0.81100005 5519671
0.22468512 0.06379801 0.81427282 8811406
-0.24135715 0.12636319 0.81400007 5588813
-0.23804782 0.12466229 0.81100005 1379612
-0.24091144 0.1352343 0.81600004 5391935
-0.2358513 0.13656232 0.81271434 2958376
-0.22584419 0.13918306 0.81099999 1117199
-0.2154943 0.13980097 0.81100005 1051407
-0.23459694 0.14271906 0.81676483 2036768
-0.22539145 0.14306191 0.8155883 1051661
-0.21588203 0.14334336 0.81575012 1182992
0.1456254 0.14781027 0.81205887 394244
0.13829091 0.15567906 0.81322223 591368
0.14351809 0.15505481 0.81736374 393988
-0.21086001 0.16451715 0.81100005 1643542
-0.20905809 0.16732478 0.81150007 1577491
0.13824669 0.16533348 0.81614292 459782
0.14118002 0.16536002 0.81900012 328708
-0.21034764 0.17309049 0.81500006 1116948
-0.20713341 0.17522103 0.81269228 1117199
0.13980097 0.17610288 0.81100005 525581
0.14455242 0.17535514 0.8160001 394245
0.15086403 0.17628178 0.81699997 328450
-0.22235852 0.18854193 0.81757152 1906201
-0.21482821 0.18692602 0.8156088 1905694
-0.2054121 0.18275782 0.81214279 1707800
0.1439025 0.18199925 0.8132 394242
-0.22217849 0.19103792 0.81739998 2102564
-0.21810953 0.19094287 0.81500006 2102311
0.11848192 0.21674064 0.81666672 394504
0.12140591 0.21553771 0.81820005 460041
0.11778001 0.22074002 0.81900012 591887
0.13467214 0.22448182 0.81600016 525830
-0.25102383 0.23866573 0.81100005 8615258
-0.25102383 0.24098286 0.81100005 7760723
-0.24729066 0.24754813 0.81099999 1314319
-0.25009429 0.25319144 0.81300002 4603684
-0.24808717 0.25156572 0.81150007 2563614
0.008621905 -0.32606477 0.82300001 2627861
0.014475 -0.32439646 0.82175004 4797489
0.028479684 -0.31483272 0.82300007 5258035
0.034665141 -0.31386116 0.82630444 5784378
0.041754603 -0.3127692 0.82722235 6442556
-0.081318095 -0.30103335 0.82100004 8747377
0.036354423 -0.30771634 0.82214296 5521450
0.044139996 -0.30623034 0.8251667 5915959
0.051195238 -0.30165809 0.82700002 6311196
-0.0813381 -0.29641411 0.82120001 8481892
-0.078972384 -0.29790574 0.82100004 7956067
0.048147146 -0.29826859 0.82200003 5916463
0.05435456 -0.29608998 0.82371432 5652260
0.058012933 -0.28290981 0.82157153 2496019
0.062743209 -0.28306177 0.82474995 3020810
0.058121592 -0.27861875 0.82100004 2364937
0.062892772 -0.27572832 0.82541656 2167055
0.058127858 -0.26323453 0.82200003 1051659
0.062031429 -0.26531416 0.82642859 1840406
-0.10026953 -0.25027907 0.82900006 1507842
-0.096678868 -0.25186783 0.82800007 8150627
0.057367902 -0.2548098 0.82399988 1314583
0.062264528 -0.25547051 0.82887518 1314317
-0.10026953 -0.24870001 0.82900006 1507840
-0.097900957 -0.24870001 0.82900006 7756384
0.057390425 -0.24463372 0.8242631 985613
0.061208386 -0.24435678 0.82820004 1117707
-0.10633456 -0.23318136 0.8235715 13285815
0.056465928 -0.2346071 0.82551849 919561
0.060793336 -0.23764668 0.82900012 1051659
-0.1061654 -0.22876287 0.82166672 13943494
0.054282781 -0.22548516 0.82595658 985608
-0.097738102 -0.21033239 0.82100004 6642531
0.053471245 -0.21575943 0.82560009 1248006
-0.096591115 -0.20675686 0.82233334 6506850
0.0280127 -0.11675969 0.82466674 5651498
0.016728844 -0.10225566 0.82500011 4861730
0.008621905 -0.091703176 0.82300007 4729638
0.012918322 -0.095058456 0.82557136 4730403
0.0055839154 -0.084045924 0.8238889 4532510
0.010781906 -0.0886181 0.82833338 4664355
-0.045809004 -0.0733582 0.82663649 2955542
-0.038345717 -0.071211115 0.82166672 3349012
-0.021111431 -0.071153335 0.82100004 4202525
-0.014863811 -0.071202867 0.82157147 4136991
-0.0040678568 -0.0738777 0.82418752 4400672
0.0020000734 -0.076530032 0.82715398 4532512
-0.041126397 -0.067939736 0.82814294 3611158
-0.034436714 -0.06547901 0.82545006 3873814
-0.025099998 -0.065100402 0.82361943 4202780
-0.014934751 -0.065248936 0.82553089 4400417
-0.0061452384 -0.066749334 0.82750005 4597543
-0.031831749 -0.058137782 0.82866669 4071698
-0.025221987 -0.056747064 0.82758331 4400155
-0.016444763 -0.058077443 0.8283847 4532260
-0.24248588 -0.033121906 0.82800007 6244446
-0.23614816 -0.032165397 0.82633334 7493730
-0.20398025 -0.03221415 0.82785732 5522005
-0.19838992 -0.031408194 0.82860005 4664899
-0.091584764 -0.031580955 0.82900006 4469839
-0.085817903 -0.031393338 0.82820004 4338252
-0.077373333 -0.03079143 0.82900006 2760499
-0.2733703 -0.024213908 0.82270002 10455715
-0.26504648 -0.025643095 0.82377404 8744845
-0.25491545 -0.025999529 0.82460004 8021119
-0.24498355 -0.026535815 0.82420009 5784418
-0.23500596 -0.027984105 0.82146162 5455434
-0.22525351 -0.026142225 0.82366675 6574943
-0.21434782 -0.022360953 0.82500011 4929868
-0.20523329 -0.026005642 0.82346159 5719898
-0.19514132 -0.025065597 0.82393742 4535619
-0.18928985 -0.021790793 0.82700008 4273731
-0.09313032 -0.024743652 0.82691681 5653595
-0.084704079 -0.025103441 0.82349998 3418426
-0.075766146 -0.025290178 0.82331246 3089200
0.028640321 -0.021809209 0.8276667 6837338
0.035182633 -0.023047663 0.82623804 8218479
0.045334861 -0.024497749 0.82633346 8811390
-0.28070381 -0.019547621 0.82100004 10256070
-0.21356478 -0.019557144 0.82139999 4600905
-0.19000286 -0.016420001 0.82100004 3285807
-0.18801957 -0.015100954 0.82488894 2234152
-0.10086168 -0.012829763 0.82900006 5588824
-0.095182553 -0.015099194 0.82675767 2366246
-0.087260582 -0.018609336 0.82100004 328455
-0.075405531 -0.018654667 0.82299995 459524
-0.068191424 -0.010189524 0.82300001 328706
0.025011949 -0.015582168 0.82554549 4930642
0.034376711 -0.019004935 0.82209098 6506335
0.045539271 -0.018348355 0.82115394 9204607
-0.19058141 -0.0031357144 0.82349998 1775385
-0.18869196 -0.0036978023 0.82792312 1972001
-0.10105905 -0.0086847618 0.82900006 723476
-0.09869048 -0.0086847618 0.82900006 656908
-0.073425718 -0.00078952388 0.82900012 3682107
-0.06773524 -0.0086638099 0.82700002 459529
-0.053557627 -0.0033993653 0.82499999 1379341
-0.045928173 -0.0019021771 0.82328576 1379864
-0.035706986 -0.0015638097 0.82100004 2758686
0.0070714285 -0.0015714286 0.82500005 1117450
0.025840953 -0.0010444445 0.82233346 985620
0.035495277 -0.0035508948 0.82523984 985363
0.044904731 -0.0039602448 0.82231402 3877930
0.054129362 -0.0026380396 0.82641184 8153203
0.064740956 -0.0014211432 0.82900012 4798790
0.073282167 -0.001937922 0.82900017 7825264
-0.19069716 0.0047044447 0.82400006 1971488
-0.18526699 0.0047195721 0.82674998 3089713
-0.17700666 0.007209525 0.82814294 4206655
-0.16172224 0.0081514297 0.82833338 4469570
-0.1547886 0.0078565078 0.82499999 4863045
-0.14543983 0.007991747 0.82550001 4403772
-0.1389562 0.0086847618 0.82900006 4601910
-0.1131651 0.0081584137 0.82900012 4536134
-0.10488001 0.0078847632 0.82800019 4207684
-0.094260149 0.0075538782 0.82871443 4272960
-0.084622696 0.0057524168 0.82811111 4206913
-0.075046942 0.0045621423 0.82685006 4339011
-0.065263808 0.0057114903 0.82693553 3484214
-0.054920219 0.0066549215 0.8277778 2235181
-0.045611698 0.0047165607 0.82561111 1906211
-0.039095238 0.0046914294 0.82100004 2629419
-0.028930476 0.00078190479 0.82100004 5453626
-0.0016561905 0.0063666669 0.8241111 1117204
0.0044205906 0.0053950408 0.82582754 919823
0.015461029 0.0058512823 0.82430774 986134
0.02490788 0.0029167968 0.82209098 1380123
0.034698654 0.0044730529 0.82352954 2234410
0.044774745 0.0047168257 0.82480967 2234406
0.05509593 0.0047250274 0.8263889 4009776
0.064412035 0.0043699569 0.82754534 3812416
0.07298772 0.0035845893 0.82809103 6179415
-0.18396953 0.010568095 0.82200003 3417908
-0.17518252 0.010913479 0.82315379 4403266
-0.16502711 0.010895845 0.82263637 4535622
-0.15519428 0.010189525 0.82300007 4207433
-0.1439202 0.010649524 0.8222 4075582
-0.13497113 0.013231992 0.82485187 4929606
-0.12433858 0.015018219 0.82480639 4666183
-0.11517896 0.015142414 0.82571119 4536129
-0.10498131 0.014721208 0.82548881 4535619
-0.095106423 0.014678725 0.82431704 4404799
-0.085255511 0.013841455 0.82394123 5194060
-0.075545028 0.012740536 0.82180005 5062220
-0.064964771 0.011739367 0.82185709 3945022
-0.054384772 0.013213812 0.82335722 3287095
-0.046100073 0.012877068 0.82259983 3089458
-0.039355874 0.010686032 0.82100004 4666182
-0.0023474286 0.012054476 0.82200003 985619
0.0023470751 0.01106898 0.82185721 1183254
0.037961908 0.012392382 0.82183337 3351862
0.045638856 0.01447429 0.82404995 3812673
0.054559309 0.015087987 0.82688898 3484216
0.1171879 0.019061362 0.82900012 7627117
0.12079715 0.019738097 0.82900006 9535903
0.13816667 0.019738097 0.82900012 10587027
0.14586683 0.017184328 0.82709092 9074057
0.15456717 0.016787246 0.82680643 7299699
0.16487843 0.018801112 0.82833338 6642018
0.17132667 0.019738097 0.82900006 5782613
-0.11337619 0.021632701 0.82100004 4601154
-0.10498101 0.02292216 0.82100004 4272961
-0.098050863 0.021736955 0.82100004 4733771
0.048478097 0.021111431 0.82100004 6050389
0.055878628 0.021812171 0.82122225 7759467
0.065064326 0.024824314 0.8250668 6510186
0.074984007 0.025902912 0.82723528 8286338
0.084988236 0.026644843 0.8278001 8483458
0.093578421 0.028125083 0.82800001 8745087
0.11565367 0.025617652 0.82686669 5720401
0.1235469 0.026689755 0.82776201 8087929
0.13510028 0.025479317 0.82611114 6377819
0.1443634 0.022563811 0.82333332 8482939
0.15592967 0.023674825 0.82273901 6970981
0.16492417 0.025125559 0.82461107 6116455
0.17411289 0.026024964 0.82642871 9009037
0.18579264 0.026249126 0.8271935 8417667
0.19466889 0.02593665 0.82706904 8286075
0.20132859 0.028422859 0.82900006 9074312
0.068807617 0.030494286 0.82100004 9270403
0.075217783 0.031338733 0.82266665 8942729
0.085856766 0.032536961 0.8233 8612226
0.09553498 0.034437779 0.82366663 7956862
0.10494202 0.036007337 0.82548666 7562360
0.11342 0.032425042 0.82335293 5390682
0.12676147 0.034090262 0.8240369 6048606
0.13291648 0.03377505 0.8229 4865611
0.15872668 0.030494286 0.82100004 5719891
0.16654572 0.030754922 0.82100004 8614292
0.17650117 0.031755239 0.8225385 8415613
0.18544379 0.032603852 0.82357144 7100018
0.19541232 0.034232549 0.8236472 6115945
0.20395929 0.036009774 0.82544446 8220289
0.21115969 0.038129207 0.82833338 11441060
0.10321143 0.041440953 0.82100004 9665426
0.1290143 0.041440953 0.82100004 4075600
0.2066007 0.041049659 0.8221429 11377574
0.21542372 0.04498899 0.82419991 7758970
0.22260775 0.047881801 0.82722217 9732760
0.21815144 0.050823815 0.82100004 9007505
0.22605453 0.053375453 0.82288885 11507622
0.23122381 0.058001906 0.82300001 15124949
0.2290981 0.06020667 0.82100004 9008760
0.23162611 0.061546475 0.8222 14337488
-0.24090421 0.14479563 0.82180005 3616563
-0.23481634 0.14793536 0.82185721 2103072
-0.22506194 0.14773384 0.82207698 985615
-0.21805048 0.14761202 0.82180005 1576464
-0.24130288 0.15219525 0.82800007 2694697
-0.23491578 0.15298302 0.8272354 1905692
-0.22426715 0.15381177 0.82728601 1248270
-0.21712051 0.15522498 0.82499999 1511442
0.14820859 0.15648969 0.8221429 197122
0.15098327 0.15681946 0.82385719 197122
-0.22027716 0.16106287 0.82900006 1840923
-0.21614683 0.16213866 0.82700008 1840406
0.14534131 0.16507734 0.82394737 262915
0.14762191 0.17160586 0.82385719 393986
0.15200922 0.17353748 0.82700002 328193
-0.22127905 0.18687524 0.82100004 1576995
-0.21422783 0.183828 0.82700008 854034
0.12591007 0.21627134 0.82404757 459782
0.13027143 0.2186981 0.82900006 459529
0.1265 0.22264159 0.82566673 656906
0.13546816 0.22289319 0.82700014 722698
0.14249238 0.2264486 0.82775009 197123
0.024711428 -0.3308143 0.83700007 5852491
0.026331084 -0.32561225 0.83554548 5719362
0.033891823 -0.3227559 0.83217663 6773331
0.041154288 -0.3205286 0.83100003 7365727
0.027766669 -0.31971335 0.83300006 5192498
0.036405716 -0.31894571 0.83100003 6838091
0.040890478 -0.3178905 0.83100003 7233880
0.064501435 -0.28728858 0.83100003 5585934
0.068038099 -0.27133572 0.8355 1575950
-0.10355561 -0.26207277 0.83640003 6180684
-0.098727621 -0.26274383 0.83600003 6967374
0.067421407 -0.26503101 0.83384216 2037014
-0.10289957 -0.25543654 0.83322221 4799807
-0.098706484 -0.25714689 0.8318001 6968915
0.066508874 -0.2555449 0.83330011 1576980
-0.10288572 -0.24930002 0.83100003 4801875
0.064306006 -0.24620834 0.83357155 1314575
0.062609807 -0.23542656 0.83514297 1314060
0.058155756 -0.22451332 0.83340007 1379598
0.06147778 -0.22435652 0.83833337 1641748
0.057632223 -0.21377581 0.8375833 3544860
0.061463811 -0.21472096 0.83814299 5188377
0.073192768 -0.21686153 0.83900017 8276017
0.056133099 -0.20795214 0.83900011 5189668
