# .PCD v0.7 - Point Cloud Data file format
VERSION 0.7
FIELDS x y z
SIZE 4 4 4
TYPE F F F
COUNT 1 1 1
WIDTH 1415
HEIGHT 1
VIEWPOINT 0 0 0 1 0 0 0
POINTS 1415
DATA ascii
0.2689757 0.087989524 0.61800003
0.27547026 0.085896388 0.61620265
0.28436646 0.084693089 0.61258221
0.29362231 0.08227507 0.6114074
0.25853834 0.096779332 0.61837518
0.26569781 0.095429882 0.61609322
0.27452606 0.094272368 0.61207777
0.28202969 0.091962807 0.61072224
0.24808906 0.10813358 0.61874998
0.25552636 0.10557144 0.61506164
0.26443765 0.10482862 0.61174679
0.27083451 0.1011269 0.61025
0.23941398 0.11921588 0.61866671
0.24595408 0.11565974 0.61649299
0.25434414 0.11445655 0.61226135
0.26220319 0.11134921 0.61000007
0.23760267 0.12612951 0.6180476
0.24481396 0.1246905 0.61371917
0.25391364 0.12170233 0.61020827
0.22932476 0.13912763 0.61900002
0.23510744 0.13517833 0.61648983
0.24389739 0.13411762 0.61212486
0.22732998 0.14635348 0.61755252
0.23487394 0.14492352 0.61360216
0.24182983 0.14398938 0.61091995
0.21810992 0.15647925 0.618577
0.22496018 0.15488037 0.61562932
0.23351283 0.15431376 0.61231244
0.21806867 0.16462521 0.61860728
0.22494093 0.165057 0.61498839
0.2322544 0.16453311 0.61113346
0.21750396 0.17530595 0.6174897
0.22496063 0.17501666 0.61362219
0.23130746 0.17342119 0.61085004
0.21691969 0.18525603 0.61659998
0.22494778 0.18497875 0.61192048
0.23063807 0.18416192 0.61000007
0.20928095 0.19631143 0.61900002
0.21483375 0.19359671 0.61699998
0.22359259 0.1929161 0.61225665
0.30685383 0.048208013 0.62816668
0.31164759 0.045723815 0.62585723
0.28652713 0.058355086 0.62869233
0.29578558 0.056319419 0.62645304
0.30468643 0.054762922 0.6239869
0.31145132 0.052360158 0.62215793
0.26859143 0.068792492 0.62811112
0.27589124 0.067246124 0.62644005
0.28522819 0.065038189 0.62561238
0.29351968 0.063227691 0.6226778
0.3005524 0.060819048 0.62
0.25818107 0.078790151 0.62833339
0.26620212 0.075835429 0.62647951
0.27480695 0.075098261 0.62230372
0.28311634 0.072784752 0.62105721
0.24703008 0.087754332 0.6280477
0.25539973 0.085751198 0.6255542
0.26438731 0.084614448 0.62197536
0.27317184 0.081906274 0.62029415
0.23895447 0.099195242 0.62819999
0.24505545 0.095115006 0.62578321
0.25399044 0.094642758 0.6217941
0.26220775 0.090817668 0.62055564
0.22803485 0.10710772 0.62858331
0.23535156 0.10512574 0.62601203
0.24435788 0.10436673 0.62201327
0.25197944 0.10258628 0.62068188
0.22715491 0.11562154 0.62669098
0.23497701 0.11468551 0.62282515
0.24207519 0.1131397 0.62050009
0.21719441 0.12606616 0.62748897
0.22480449 0.12486005 0.62397748
0.23331 0.12401665 0.62134629
0.2086014 0.13659361 0.6285001
0.21518107 0.13507974 0.62581015
0.22489405 0.13493653 0.62165439
0.20607521 0.14557326 0.62821865
0.21473101 0.14528568 0.62348878
0.22341472 0.14376859 0.62094355
0.19669116 0.15776753 0.62876916
0.20492995 0.15483584 0.62556195
0.21385747 0.15446664 0.62150002
0.22024761 0.15057144 0.62
0.19645531 0.16523075 0.62811768
0.20463985 0.16494498 0.62431419
0.21341577 0.16508488 0.6210537
0.1954643 0.17487068 0.62655085
0.20490018 0.17476426 0.62224996
0.21274969 0.17475455 0.62075692
0.18989812 0.18690287 0.62900001
0.19527942 0.18509012 0.62692308
0.20493345 0.18499224 0.62176126
0.21255739 0.18448785 0.62050015
0.18665697 0.19733545 0.62789285
0.19521639 0.19462416 0.62606943
0.20467551 0.19359176 0.62105078
0.31803715 0.029571112 0.63366669
0.30679631 0.038436055 0.63771439
0.31538337 0.03562627 0.6350655
0.28624964 0.048117649 0.63670588
0.29603988 0.046937976 0.63522822
0.30464715 0.044052117 0.63373524
0.31256089 0.041280001 0.63186675
0.2760205 0.056831274 0.63558924
0.28457633 0.054139573 0.63348609
0.29307759 0.052278772 0.6315186
0.24973144 0.069876194 0.63800001
0.25633129 0.068365507 0.63651854
0.26536661 0.065758139 0.63432211
0.27385259 0.062794261 0.63236362
0.2802 0.061200008 0.63000005
0.24637559 0.07622619 0.63661367
0.25460669 0.07484933 0.6329276
0.26237756 0.072191447 0.63042867
0.23650944 0.086282782 0.63538897
0.2442414 0.083979979 0.63332307
0.25185829 0.08243265 0.63131577
0.21935049 0.098434284 0.63800001
0.22588304 0.096482702 0.63647366
0.23452909 0.094513819 0.63253582
0.2411143 0.092142865 0.63000005
0.21594737 0.10670246 0.63673097
0.22398628 0.10448936 0.63308465
0.23155296 0.10047182 0.63020009
0.19990668 0.11909334 0.63800001
0.20625013 0.11647121 0.6363914
0.2151475 0.11494977 0.63332927
0.22235319 0.11462383 0.63033342
0.19735077 0.12615082 0.63651729
0.20492309 0.12499183 0.63332146
0.21328278 0.12397265 0.63141859
0.18916039 0.13738438 0.63660008
0.19543657 0.13509661 0.63467062
0.20393346 0.1344171 0.63043767
0.21150002 0.1311 0.63000005
0.18752232 0.14519137 0.63711917
0.19542094 0.14526315 0.6332705
0.20206432 0.14278859 0.63015395
0.17872682 0.15789413 0.63800001
0.18541026 0.15536214 0.63504225
0.19402578 0.1539178 0.63140023
0.17777924 0.16640583 0.63753349
0.18497632 0.16499123 0.63482261
0.19166949 0.16574427 0.6310358
0.17620374 0.17509896 0.63733345
0.18517455 0.17529602 0.63362008
0.19090118 0.17432643 0.63046676
0.16952573 0.18532382 0.63800001
0.17549103 0.1850895 0.63693607
0.18473169 0.18502116 0.63217109
0.19050002 0.18150002 0.63000005
0.16761674 0.19597325 0.63745159
0.17534259 0.19488214 0.63491756
0.18427186 0.19347636 0.6302498
0.19020002 0.19260001 0.63000005
0.16693696 0.20093277 0.63740009
0.17300652 0.20022874 0.63516676
0.30736437 0.02899676 0.64780003
0.31669471 0.027505863 0.64640623
0.32373938 0.025165385 0.64687794
0.28673825 0.038463872 0.64794451
0.29520085 0.037045989 0.64589071
0.30455378 0.034216575 0.64380747
0.31353635 0.032035045 0.6419999
0.32719713 0.030193334 0.64700001
0.33377147 0.030904764 0.64900005
0.26777053 0.048010953 0.64816666
0.27552715 0.046101067 0.64578575
0.28455949 0.044023957 0.64367694
0.29408807 0.04268828 0.64118189
0.24827702 0.05923789 0.64866674
0.25510731 0.057399094 0.64709532
0.26517645 0.05525177 0.64451271
0.27337122 0.053189091 0.64075685
0.28099048 0.050590478 0.64000005
0.23632336 0.068853147 0.64840007
0.24555482 0.065598346 0.64563888
0.25451446 0.063872315 0.64193094
0.26381618 0.062046796 0.64065379
0.22690682 0.076904081 0.64727283
0.23531075 0.074997358 0.64381379
0.24362896 0.073394924 0.6407181
0.20860519 0.088544495 0.64885724
0.21563035 0.086222738 0.64715689
0.22502215 0.084925674 0.64360988
0.23279624 0.083497226 0.64094746
0.19809955 0.09817414 0.64900017
0.20610473 0.095940143 0.64748263
0.21473932 0.094788171 0.64284313
0.2230432 0.09265843 0.64093339
0.18844137 0.10705062 0.64873344
0.19528535 0.10535225 0.64639121
0.20464811 0.1048349 0.64301252
0.21350387 0.10305613 0.6407221
0.18639401 0.11542767 0.64722645
0.19479512 0.11479201 0.64339525
0.20367491 0.11305339 0.64035124
0.21028572 0.11093334 0.64000005
0.16956413 0.12876986 0.64900005
0.17600457 0.12517764 0.64877778
0.18499126 0.12497518 0.64503694
0.19402342 0.12404409 0.64127278
0.20297144 0.12129524 0.64000005
0.1692137 0.13558225 0.64878583
0.17536382 0.13498558 0.64633745
0.18466341 0.13509202 0.64251405
0.19074173 0.13243854 0.64136368
0.16554464 0.14533703 0.64799982
0.17476165 0.14498881 0.6435203
0.18255283 0.14505267 0.64065868
0.15837727 0.1560095 0.64854169
0.165086 0.15499504 0.64603746
0.17468081 0.15456645 0.64170259
0.18201375 0.1527447 0.64024997
0.15707171 0.16577247 0.6483556
0.16484882 0.16514412 0.64386851
0.17360987 0.16434167 0.64099997
0.1558263 0.17531009 0.64781952
0.16454817 0.17497213 0.64212
0.17138895 0.1740711 0.64024007
0.1555464 0.18517205 0.64633822
0.16469774 0.18483154 0.64160001
0.17066666 0.18102859 0.64000005
0.14824198 0.19765662 0.64856255
0.15534364 0.19508722 0.64615005
0.16347529 0.19439241 0.64119619
0.14695279 0.20182279 0.64731258
0.15459393 0.2011916 0.64457899
0.16262349 0.20104413 0.64033341
0.31745404 0.019448811 0.65875006
0.32463595 0.018294703 0.65656513
0.33216116 0.012421715 0.65880007
0.28724033 0.029288892 0.65900004
0.2956681 0.028006043 0.65655178
0.3051002 0.02580625 0.65587282
0.31433564 0.02353875 0.6534906
0.32376012 0.022131169 0.65045464
0.33387333 0.028830478 0.65100002
0.2692486 0.038912382 0.65900004
0.27571002 0.037124399 0.65676945
0.28465477 0.034317512 0.6549232
0.29408619 0.031906448 0.6518333
0.30054605 0.031602543 0.65066671
0.24763732 0.049150959 0.65883338
0.25532836 0.047458317 0.65682054
0.26476988 0.044628024 0.65445149
0.27363628 0.041353468 0.65180951
0.23827952 0.058055408 0.65783334
0.24489422 0.055098165 0.65460879
0.25473538 0.05242474 0.65262502
0.26189739 0.050864976 0.65044451
0.21777081 0.06796746 0.6582942
0.22525284 0.067112364 0.65662801
0.23494208 0.064413652 0.65425813
0.24196844 0.061790004 0.65125
0.20647289 0.077872805 0.65819234
0.21555609 0.075441167 0.65553856
0.22405635 0.073846713 0.65303713
0.19666761 0.087123647 0.65760022
0.20492165 0.084616035 0.65476066
0.21383505 0.082108244 0.65203226
0.18675809 0.098352127 0.65857154
0.19453277 0.094735801 0.65429336
0.20306322 0.092045009 0.65169573
0.17619298 0.10662889 0.6580478
0.18439408 0.10454533 0.65361655
0.19301556 0.10095619 0.65166676
0.16701788 0.11698311 0.65777421
0.17466694 0.11508239 0.65511286
0.18175803 0.1145156 0.65303129
0.15690477 0.12841086 0.65899998
0.16499533 0.12507926 0.65583354
0.17186475 0.12319801 0.65073675
0.18049002 0.12011953 0.65350008
0.15594304 0.13687347 0.6581704
0.16441472 0.13484742 0.65382445
0.14778727 0.14631669 0.658207
0.15516524 0.1450053 0.65435916
0.16231477 0.14187001 0.65050006
0.13964367 0.15762112 0.65850008
0.14520803 0.15505637 0.65730333
0.15341927 0.15466712 0.65249127
0.1367743 0.16547611 0.65826112
0.14519827 0.16503946 0.65427625
0.15263219 0.16416931 0.65164703
0.13570681 0.17509852 0.65678579
0.14489393 0.17486876 0.65290141
0.15084127 0.17415872 0.6500001
0.12918493 0.18608904 0.65899998
0.13526595 0.18533912 0.65628773
0.14502627 0.18500815 0.65341079
0.15097706 0.18410505 0.65130001
0.12833588 0.19630215 0.65836006
0.1353357 0.19521743 0.65488708
0.14487723 0.19458474 0.65238196
0.15089144 0.19063237 0.65200001
0.12622459 0.20310089 0.65788472
0.13529101 0.20258042 0.65520579
0.14313322 0.20215753 0.65237504
0.32723072 0.0085249739 0.66588897
0.33153406 0.008563403 0.66271436
0.29907209 0.019287938 0.66766667
0.30474597 0.017921176 0.66517651
0.31543645 0.015756244 0.66496366
0.32471547 0.013591 0.66307539
0.33111516 0.013082539 0.66111118
0.27618095 0.029651593 0.66716683
0.28507334 0.026538409 0.66428262
0.29488185 0.023803942 0.66340917
0.30350929 0.021370223 0.66126674
0.31224382 0.020774284 0.66100001
0.2569294 0.038318779 0.66690481
0.2651853 0.035801187 0.66499996
0.27394304 0.033339191 0.66312808
0.28139716 0.030846667 0.66100001
0.23696634 0.04763481 0.66690922
0.24512596 0.046026304 0.66412961
0.25434613 0.042745598 0.66352504
0.26228586 0.041430123 0.66162503
0.21729489 0.058655597 0.66762507
0.22581448 0.057045862 0.66485709
0.23459372 0.054422949 0.66324288
0.24160454 0.051817145 0.66150004
0.20660907 0.067321427 0.66688466
0.21434908 0.064455822 0.66416174
0.22489877 0.062334131 0.66160715
0.23187461 0.061903179 0.66100001
0.19614477 0.076525971 0.66578257
0.20413548 0.073598981 0.66339296
0.21178383 0.072343968 0.6615001
0.17839153 0.088242248 0.6674546
0.18519635 0.085902497 0.66583622
0.19368644 0.083407201 0.66280395
0.16734844 0.09843345 0.66782367
0.17568104 0.095714591 0.66588318
0.18452252 0.093837418 0.66251713
0.19074571 0.09128096 0.66100001
0.15882514 0.10783239 0.6676001
0.16515563 0.1052413 0.66502857
0.17365654 0.10299996 0.66238892
0.18067333 0.10072381 0.66100001
0.15612647 0.11546113 0.66554844
0.16419238 0.11383997 0.66235572
0.17060095 0.11016667 0.66100001
0.13890159 0.12872255 0.6680001
0.14544731 0.12543958 0.66646028
0.15468605 0.12431282 0.6630491
0.1611581 0.12086858 0.66100001
0.13711292 0.13597944 0.66678369
0.14473757 0.13472502 0.66374981
0.15321499 0.13306718 0.66110355
0.12762205 0.14606015 0.66759098
0.13459292 0.14492214 0.66359192
0.14370359 0.14423499 0.66173345
0.12704973 0.15551391 0.66597557
0.13464728 0.15495633 0.66265643
0.1408035 0.15192509 0.66100001
0.11753508 0.16745283 0.66794133
0.12502347 0.16531372 0.66535711
0.13260823 0.16422918 0.6613667
0.11696584 0.17578483 0.66737831
0.12473045 0.17498776 0.6637221
0.13122337 0.17433451 0.66111773
0.11601067 0.1849886 0.66723621
0.12445045 0.18501325 0.66301656
0.13031143 0.18067333 0.66100001
0.10894681 0.19635852 0.66785729
0.11485957 0.19494644 0.66573215
0.12393958 0.19460721 0.66207266
0.10781369 0.20386156 0.66787505
0.11469837 0.2034909 0.66589129
0.12168261 0.20311461 0.66246676
0.33820671 -0.00064666674 0.67900008
0.29940668 0.0097000003 0.67900002
0.30525109 0.009114881 0.67762506
0.31599626 0.008187212 0.67635721
0.32462621 0.0068576345 0.67496765
0.33454108 0.003435794 0.67725003
0.28719547 0.018617768 0.67621732
0.29549551 0.016124515 0.67359281
0.30463696 0.013269522 0.67356402
0.3130658 0.012022508 0.67194742
0.25780496 0.028729906 0.67640013
0.26597011 0.027971633 0.67528588
0.27557519 0.02550575 0.67492306
0.28346682 0.022576297 0.67316663
0.29288575 0.021057144 0.67000002
0.23832536 0.03847238 0.6778
0.24559502 0.036244489 0.67566669
0.25453329 0.033743728 0.67338991
0.26261431 0.031232953 0.67113334
0.21681076 0.048623312 0.67713332
0.22584486 0.046988521 0.67680967
0.23443814 0.044185095 0.67399997
0.24409312 0.041632414 0.67171997
0.25077143 0.040200002 0.67000002
0.19982 0.058846667 0.67900002
0.20674905 0.05767915 0.67770374
0.21420294 0.05476176 0.67415142
0.2243121 0.052766226 0.67237824
0.1869656 0.067965835 0.67725009
0.19542821 0.066173732 0.67531663
0.20410214 0.063578829 0.67286783
0.21120952 0.060619049 0.67000002
0.17652252 0.07715784 0.67689651
0.18514092 0.075033508 0.67345196
0.19321792 0.073212206 0.67119998
0.15929556 0.089455567 0.67900008
0.16561626 0.085993014 0.67666662
0.17453694 0.084632657 0.67313218
0.18317732 0.081458539 0.67100006
0.149325 0.096963584 0.67875004
0.15530384 0.096039221 0.67714036
0.16425198 0.094367526 0.67265618
0.1719027 0.09222731 0.67016673
0.13822402 0.10734762 0.67855555
0.14492337 0.1053232 0.67657542
0.15471961 0.10483912 0.67366654
0.16041714 0.10171238 0.67000002
0.12918627 0.11828995 0.67871433
0.13554595 0.11493921 0.67616951
0.14512765 0.11546714 0.67270595
0.15200461 0.11261953 0.67061108
0.12640193 0.12567088 0.67711782
0.13480522 0.12468378 0.67213339
0.14454876 0.12079962 0.67040008
0.11619899 0.13663113 0.67867738
0.12527823 0.13519077 0.67492962
0.13307428 0.13451684 0.67083859
0.10869879 0.14644061 0.67899996
0.11508477 0.14476408 0.67542458
0.12377602 0.14387678 0.67181253
0.13080953 0.14101905 0.67000002
0.10615437 0.15560395 0.67882258
0.11486959 0.15512967 0.67437851
0.12256844 0.15439314 0.671
0.097837947 0.16733733 0.67883337
0.10524403 0.16521601 0.67675364
0.11431523 0.16435547 0.67160797
0.12199682 0.16096002 0.67066669
0.097496204 0.17439225 0.67873913
0.10479496 0.17500915 0.67443055
0.11223634 0.17455438 0.67051721
0.096244209 0.18574484 0.67807877
0.10487216 0.18486513 0.6733638
0.11106977 0.18511622 0.67025006
0.08730001 0.1979821 0.67899996
0.095505089 0.1952139 0.67760956
0.1045846 0.19482213 0.67260349
0.11039048 0.19079047 0.67000002
0.088131957 0.20462385 0.67863995
0.095204078 0.20498085 0.67635483
0.10425577 0.20398793 0.67161697
0.32958478 -0.00065523811 0.68800002
0.33468616 -0.0014352382 0.68433344
0.28940427 0.0098214289 0.6875
0.29624465 0.0081425728 0.68596679
0.30499557 0.0068327985 0.68356258
0.31472981 0.0050641838 0.68382615
0.32550403 0.0026976874 0.68435723
0.33274311 0.0011207793 0.68154544
0.34 0.0019428571 0.68000001
0.26860571 0.018546667 0.68733335
0.2758806 0.016932357 0.68605411
0.28494522 0.014535448 0.68368906
0.29348877 0.01240839 0.6824286
0.24712691 0.028745001 0.68600005
0.25502998 0.026257781 0.68437517
0.265241 0.02329581 0.68345004
0.27365798 0.021383129 0.68238097
0.21950477 0.039969526 0.68800002
0.22573836 0.039097194 0.68550003
0.23544548 0.035872027 0.68441314
0.24364483 0.032068349 0.68292314
0.2512762 0.030438095 0.68000001
0.20672148 0.047218215 0.68545836
0.21497312 0.045276128 0.68424445
0.22394857 0.042522106 0.68133342
0.23217145 0.041123811 0.68000001
0.18758593 0.058743384 0.68788892
0.19607702 0.056399439 0.68550003
0.20436454 0.053100586 0.68217397
0.21109524 0.050013337 0.68200004
0.17692776 0.0672336 0.68586677
0.18440792 0.064346448 0.68384916
0.19408181 0.061516281 0.68266666
0.15765028 0.079021715 0.68800002
0.16610803 0.076510228 0.685341
0.17396922 0.073601827 0.68319154
0.18111746 0.071022227 0.68000001
0.13891047 0.08976762 0.68800002
0.14575611 0.087368764 0.68702954
0.15557474 0.085130639 0.68451566
0.16305846 0.08151108 0.68242115
0.12908192 0.09828572 0.68800002
0.13555315 0.095801316 0.68666089
0.144694 0.094932549 0.68369371
0.15279043 0.091661431 0.68205559
0.11958095 0.1084419 0.68800002
0.12579887 0.10564088 0.68599999
0.13424562 0.10455213 0.68314737
0.14196636 0.10091111 0.68066669
0.10898794 0.11947175 0.68800008
0.11602897 0.11613835 0.68682986
0.12474741 0.11478332 0.68334407
0.13153674 0.11222032 0.68111116
0.10746664 0.12565596 0.68773073
0.11485132 0.12501077 0.68446767
0.12178884 0.12383626 0.68188465
0.098940954 0.13956572 0.68800002
0.10568999 0.13565195 0.68651718
0.11385365 0.13300855 0.68277502
0.12110476 0.13017143 0.68000001
0.089309052 0.14804748 0.68783331
0.095898308 0.14623329 0.68670005
0.10438533 0.14449823 0.68243861
0.11074285 0.14053333 0.68000001
0.088179171 0.15524188 0.68754172
0.095216177 0.1550293 0.68428576
0.10160381 0.1540879 0.68076199
0.079283811 0.16970667 0.68800002
0.08538457 0.16532567 0.6868071
0.094118513 0.16438581 0.68244439
0.10038095 0.16125715 0.68000001
0.078459375 0.17652172 0.68766671
0.084795982 0.17482027 0.6849376
0.092919543 0.17534153 0.68156415
0.07664229 0.18567148 0.68712133
0.084645018 0.18492402 0.68370295
0.091577053 0.1836801 0.68104762
0.075882405 0.19494747 0.68689597
0.084072992 0.19441901 0.68241811
0.090019047 0.19234286 0.68000001
0.076283529 0.20497131 0.6865716
0.082875758 0.20530117 0.68252784
0.068144768 0.21098667 0.68800002
0.073610403 0.2106158 0.68608344
0.083260953 0.21010379 0.68300003
0.30933428 -0.00066380959 0.69700003
0.31535414 -0.0014451542 0.69658828
0.32538912 -0.0023906205 0.69500017
0.33491474 -0.0043939333 0.69503713
0.34175655 -0.0052310056 0.69588894
0.27745664 0.0093789417 0.69788891
0.28570262 0.0086605335 0.6954
0.2939615 0.0058882539 0.69495237
0.30619895 0.0033006759 0.69383883
0.31453028 0.0020367531 0.69250011
0.32278743 0.00095058215 0.69122225
0.24928571 0.019278096 0.69800001
0.25576022 0.018702382 0.69778574
0.2657735 0.017199771 0.69551528
0.27411738 0.013231276 0.69367743
0.28280324 0.011522262 0.69137502
0.22612543 0.028757256 0.69652945
0.23570593 0.027345615 0.69510543
0.2451238 0.025532456 0.69414294
0.25357381 0.022109382 0.69392323
0.26249695 0.020902647 0.69311112
0.21639049 0.03694744 0.69512504
0.22475965 0.034262244 0.69194478
0.233428 0.032495841 0.69042116
0.18614709 0.049545817 0.69777775
0.19580264 0.046714772 0.69526672
0.2040714 0.043733917 0.69327104
0.21404064 0.041114692 0.69221056
0.17702477 0.057082567 0.69730443
0.18472935 0.054967072 0.69408351
0.1940642 0.052618075 0.69125015
0.15732893 0.06779398 0.69610536
0.16578241 0.065775871 0.69494116
0.17396483 0.063359976 0.69180453
0.18057716 0.060630478 0.69200003
0.13885811 0.078971431 0.69100004
0.1459128 0.077022471 0.69342422
0.15470897 0.074852094 0.692554
0.16377321 0.072450116 0.69061559
0.17020002 0.070314296 0.69000006
0.1281319 0.089164287 0.69350004
0.13638113 0.086417496 0.69139409
0.14418466 0.082809485 0.69065547
0.15183118 0.081784092 0.69014293
0.11883483 0.098791294 0.69485724
0.12600827 0.095592126 0.69243765
0.132808 0.09135291 0.69007701
0.10585134 0.10836992 0.69673693
0.11512505 0.10552282 0.69282782
0.12219103 0.10226451 0.69085723
0.097620837 0.1173079 0.69729424
0.10492662 0.1151303 0.69449276
0.11282054 0.11255766 0.69075006
0.087300494 0.1274869 0.69771433
0.095371976 0.1250622 0.69445908
0.10309976 0.12436858 0.69075024
0.085666291 0.13530418 0.69669229
0.094846018 0.13484286 0.69241959
0.10173768 0.13256364 0.69000006
0.076763265 0.14632058 0.69729644
0.084544383 0.14466171 0.69471425
0.093183875 0.14190625 0.6905219
0.067584127 0.15887812 0.69800007
0.075760759 0.15556115 0.69588131
0.08337146 0.15455444 0.69179577
0.066251084 0.16504288 0.69722444
0.075161926 0.16507421 0.69301617
0.082518376 0.16156328 0.69000012
0.058631998 0.17775734 0.69800001
0.065011159 0.17486939 0.69580966
0.074203178 0.17465645 0.69214922
0.056186683 0.18550771 0.69777501
0.064695746 0.18496729 0.69398481
0.072420157 0.18397132 0.6910969
0.056569237 0.19483225 0.69705409
0.064691976 0.19511551 0.69239724
0.070961595 0.19491398 0.69033349
0.05529331 0.20524628 0.69654006
0.064638726 0.20521621 0.69171
0.071365722 0.20555429 0.69000024
0.048195239 0.21305618 0.69800001
0.054738455 0.211879 0.6969474
0.063189268 0.21137786 0.69181818
0.33623192 -0.010523017 0.7051667
0.34450781 -0.01196508 0.70433342
0.29963335 -0.00067333336 0.70700002
0.30659452 -0.0015659258 0.70444453
0.31652212 -0.003926327 0.70350009
0.32517639 -0.0065858876 0.70400012
0.33425912 -0.0076780505 0.7024287
0.34571335 -0.0077961907 0.70166671
0.26727009 0.0084910477 0.70760006
0.27549967 0.007172571 0.70536
0.28496283 0.0049253413 0.70367873
0.29486805 0.0024199639 0.70403844
0.30327138 0.0015931135 0.70200014
0.23869714 0.019554285 0.708
0.24653363 0.017866744 0.70536
0.25493464 0.014983451 0.70418924
0.26463625 0.012550037 0.70386499
0.27182871 0.010764973 0.70166671
0.21614444 0.028373854 0.70781821
0.2245654 0.02640448 0.70559263
0.234449 0.023258135 0.7045666
0.24362472 0.021321427 0.70278579
0.18794796 0.039745398 0.70733333
0.19573176 0.038048048 0.70733333
0.20588017 0.036627259 0.70547628
0.21441826 0.033328444 0.7041111
0.22139841 0.030100001 0.70233339
0.1773001 0.048531003 0.70666677
0.18501268 0.045248043 0.70436549
0.19364443 0.042785104 0.70200002
0.16669901 0.056933336 0.70446682
0.17412798 0.053699549 0.70282984
0.18066667 0.050666671 0.70000005
0.15933335 0.062666669 0.70000005
0.1633953 0.062023122 0.70026672
0.087316833 0.11917238 0.70166671
0.094500519 0.11564794 0.70017874
0.075863071 0.1265174 0.70583719
0.084002599 0.12388577 0.70174432
0.090666667 0.12133334 0.70000005
0.058662858 0.13890284 0.708
0.065904014 0.13569683 0.7071138
0.075107582 0.13508834 0.70299989
0.081259266 0.13237037 0.70000005
0.058351077 0.14604664 0.70695841
0.064907931 0.14466923 0.70368421
0.073047504 0.14368589 0.70119458
0.048392858 0.15758087 0.70770007
0.055224396 0.15510336 0.70513809
0.064662807 0.15466814 0.70079643
0.07082051 0.1528718 0.69999999
0.047114566 0.16554031 0.70711124
0.05483428 0.164819 0.70319039
0.061548859 0.16378015 0.70028573
0.045924839 0.17491768 0.70589364
0.054397661 0.17463395 0.70110178
0.060666669 0.17000002 0.70000005
0.03924343 0.18664229 0.70800012
0.044908114 0.18482895 0.70392603
0.051942647 0.18352689 0.70004541
0.037706662 0.19588149 0.7074194
0.044844605 0.1949248 0.70371151
0.051614288 0.19533622 0.70020002
0.037214231 0.20506302 0.70736372
0.044708848 0.20463395 0.70189101
0.050727282 0.20345458 0.69999999
0.037128486 0.21276049 0.70642871
0.044579089 0.21218343 0.70111549
0.050000004 0.21066667 0.70000005
0.31517023 -0.010255103 0.71785718
0.32397276 -0.010450478 0.71566671
0.34171671 -0.012631588 0.7105
0.2963841 -0.001164898 0.71357149
0.30631673 -0.0033939395 0.71200007
0.31477731 -0.0067860316 0.71424234
0.32420051 -0.0083882548 0.71416676
0.2561996 0.008083811 0.71600002
0.26455584 0.0064201541 0.713871
0.27508447 0.0036147777 0.71377414
0.28407893 0.0018233701 0.71269238
0.29313955 0.00068174599 0.71583337
0.21862857 0.019501906 0.71850008
0.22497335 0.019145716 0.71799999
0.23553497 0.017679293 0.71499997
0.24473906 0.014570475 0.71372223
0.25409746 0.010954086 0.71189487
0.26100951 0.010142857 0.71000004
0.20594829 0.028340336 0.71758819
0.21467721 0.024877101 0.71436167
0.22454961 0.022563163 0.7128402
0.23144518 0.021261906 0.71100003
0.17994764 0.038705718 0.71300006
0.1860263 0.036623158 0.71447212
0.19447023 0.033776842 0.71367639
0.20392992 0.032151103 0.71249992
0.21029525 0.030428572 0.71000004
0.17649612 0.044902377 0.71150017
0.18198071 0.041812383 0.71100003
0.17107619 0.050714288 0.71000004
0.055347845 0.12812231 0.71504772
0.064985111 0.12755431 0.71078598
0.071000002 0.12644762 0.71000004
0.046423119 0.13625728 0.71711612
0.054709546 0.13507268 0.71208924
0.06215895 0.13304374 0.71020007
0.036959399 0.1462447 0.71818513
0.044973087 0.14506914 0.71469486
0.053315368 0.14495191 0.7101714
0.029444763 0.15886477 0.71900004
0.035087757 0.15530254 0.71718729
0.044108778 0.1545265 0.71261817
0.051728573 0.15112858 0.71000004
0.027677063 0.16572571 0.71758336
0.035277218 0.16505472 0.71331805
0.042821724 0.16419859 0.7103703
0.019858096 0.17803811 0.71900004
0.025553487 0.17516108 0.71675986
0.035140295 0.17516407 0.71155179
0.041416667 0.17462619 0.71000004
0.017339217 0.18559806 0.71817636
0.025341978 0.18493532 0.71496201
0.034408551 0.18437569 0.71073467
0.041247621 0.18054286 0.71000004
0.016788177 0.19517231 0.71782893
0.025131209 0.19509216 0.71341068
0.032878205 0.1941594 0.71034276
0.016410045 0.2049015 0.71672714
0.025003495 0.20504531 0.71194136
0.032016151 0.20517972 0.7100001
0.015824925 0.21431673 0.71660954
0.02496418 0.21341984 0.71177799
0.031949997 0.21283096 0.71000004
0.30832145 -0.011086191 0.72750008
0.31419834 -0.011712994 0.72350007
0.32476261 -0.013156008 0.7238847
0.33234286 -0.014540001 0.72700006
0.34489167 -0.015867738 0.72441941
0.35168254 -0.017261906 0.72500002
0.27670202 -0.001306455 0.72533339
0.28702629 -0.0026503573 0.72520828
0.29378188 -0.0041561294 0.7226451
0.30570567 -0.0059137382 0.72360599
0.31057963 -0.0078371437 0.72180009
0.2469819 0.0079165827 0.72476476
0.25468704 0.00645119 0.72300005
0.26481336 0.0032316486 0.72338474
0.27285445 0.0012590478 0.72166681
0.28633621 0.0006866667 0.72100008
0.29005712 0.0006857143 0.72000003
0.2147691 0.01903091 0.72554559
0.22611319 0.015771031 0.72275007
0.23539874 0.01316706 0.72347057
0.24415927 0.010826373 0.7209233
0.18862811 0.029364763 0.72550005
0.19543803 0.028011855 0.72533339
0.20501225 0.024385363 0.72415787
0.211666 0.021595672 0.72309095
0.18717526 0.031843495 0.72166675
0.19300459 0.030908573 0.72120005
0.044840638 0.12856624 0.72293347
0.050434764 0.12797382 0.72050005
0.042651705 0.13293648 0.72137511
0.018103706 0.1466015 0.7280001
0.025227213 0.14515851 0.72592866
0.033195913 0.14400761 0.72118527
0.016870443 0.15559772 0.72738707
0.024701998 0.1546796 0.72336674
0.031200001 0.15120001 0.72000003
0.0084586684 0.16875735 0.7280001
0.015467486 0.16531067 0.72531569
0.023363842 0.16424057 0.72156668
0.0062369802 0.17535035 0.72774297
0.014846415 0.17494769 0.72313344
0.021531431 0.17238858 0.72000003
-0.0016176192 0.18831223 0.72783339
0.0053432654 0.18560666 0.72593898
0.012576159 0.18422343 0.72131038
-0.0020798643 0.19478898 0.72785711
0.0048782341 0.19484138 0.72397912
0.011342858 0.19486041 0.72058839
-0.0019340354 0.20475228 0.72799993
0.0048485911 0.20469759 0.7243529
0.011075478 0.20504048 0.72125012
-0.0029609522 0.21527523 0.72724241
0.00464758 0.21414453 0.72310191
0.010752381 0.21345335 0.72066677
0.28496954 -0.010464286 0.73250002
0.29566839 -0.010534286 0.7374
0.30480024 -0.012211477 0.73675007
0.32884762 -0.015990477 0.73000002
0.25876731 -0.0011730159 0.73900002
0.26654273 -0.0014606596 0.7378462
0.2758421 -0.0031178361 0.73581827
0.28429404 -0.0061585591 0.73140556
0.29841524 -0.0091495244 0.73900002
0.303334 -0.0083421981 0.7345385
0.23606533 0.0083199413 0.73581249
0.24318844 0.007174422 0.73257142
0.25645968 0.0032334526 0.73500007
0.26366058 0.001626508 0.73283339
0.27016288 0.00069809525 0.73300004
0.19728641 0.017157283 0.73757154
0.20496401 0.017639959 0.73568183
0.21579683 0.015205625 0.73434389
0.22397688 0.012920984 0.7337814
0.23212628 0.010862859 0.73257148
0.19583827 0.023038246 0.7313599
0.20300601 0.021295102 0.7314285
0.016516251 0.12678769 0.7380625
0.023682075 0.12781262 0.73288244
0.0080457143 0.1383473 0.73822224
0.015011999 0.13518704 0.73672003
0.022721555 0.13454148 0.73197138
-0.00070380955 0.14991142 0.73900002
0.0060032178 0.14557129 0.73629737
0.014035548 0.14447311 0.73223919
0.020625398 0.14159682 0.73000002
-0.0018598319 0.1559246 0.73729414
0.0050188536 0.15503104 0.73412967
0.012005238 0.1546908 0.73083341
-0.013841587 0.1696181 0.73900002
-0.0035083399 0.16571742 0.73554051
0.0044939881 0.1645813 0.73122907
0.01077619 0.16164285 0.73000002
-0.013643441 0.17558855 0.7389034
-0.004930906 0.1749104 0.73423529
0.0020039217 0.17376864 0.7299999
-0.021744011 0.18554644 0.73900014
-0.014652333 0.1850215 0.73625469
-0.0052787047 0.1846465 0.73251998
0.0013904762 0.18215238 0.73000002
-0.021964725 0.19520572 0.73795843
-0.014783395 0.19515556 0.73487991
-0.0069684698 0.19503762 0.7313928
-0.02321244 0.20527683 0.73727047
-0.014683307 0.2048312 0.7340408
-0.0068292259 0.20478959 0.73062479
-0.030967619 0.21818095 0.73900002
-0.024337316 0.21501905 0.73666
-0.014656055 0.21492609 0.73271453
-0.0075192284 0.21426435 0.73033327
-0.030967619 0.22099619 0.73900002
-0.025348045 0.22087567 0.73677772
-0.014622994 0.22069241 0.73100007
-0.0083428575 0.22039048 0.73000002
0.22836858 -0.0021342859 0.74700004
0.23254667 -0.0014266667 0.74900001
0.24544288 -0.00071142858 0.74700004
0.25739861 -0.0014142857 0.74250007
0.26464885 -0.0025334698 0.74442869
0.27616954 -0.0039990479 0.74100012
0.29922289 -0.0077628582 0.74100006
0.30204573 -0.0077628582 0.74100006
0.2268707 0.0065621445 0.7455833
0.23515217 0.0040628361 0.74565905
0.24509266 0.0028534392 0.7432223
0.25332597 0.0022691225 0.74289477
0.20647681 0.014621906 0.74409097
0.2141574 0.012353786 0.74473691
-0.0011888889 0.12863778 0.74900001
0.0053571705 0.1263115 0.74558336
0.011884286 0.12708509 0.74133343
-0.011175556 0.13862446 0.74900001
-0.0043022777 0.13556059 0.74678266
0.0043317815 0.13426903 0.74254334
0.011150287 0.13168631 0.74100012
-0.020686667 0.14908667 0.74900001
-0.013785298 0.14537159 0.74758977
-0.0051004677 0.14492397 0.74345118
0.0018528573 0.14374882 0.74125004
-0.022737045 0.15528107 0.74767858
-0.015035908 0.15486319 0.74503696
-0.0063556028 0.15417317 0.74138224
-0.031289209 0.16642383 0.7485556
-0.024746502 0.1649072 0.74636555
-0.014836325 0.16459171 0.74173462
-0.0076885717 0.16339144 0.74100012
-0.032600801 0.17537923 0.74736667
-0.024766041 0.17501658 0.74357402
-0.01655221 0.1741831 0.74100012
-0.041290954 0.18936619 0.7475
-0.034722209 0.18574703 0.74714589
-0.026604956 0.18493032 0.74197048
-0.041405652 0.1958335 0.74700004
-0.034637481 0.19537055 0.74511778
-0.026980001 0.19521146 0.741
-0.041756935 0.20537704 0.74733335
-0.0347123 0.20537101 0.74431998
-0.028026944 0.2043547 0.74100012
-0.042355001 0.21568257 0.74741662
-0.034983188 0.21472126 0.74291289
-0.028934287 0.21312574 0.74100006
-0.043546546 0.22252965 0.74799997
-0.036426891 0.22174618 0.74315399
0.22797452 -0.0015874287 0.75800008
0.23849145 -0.00071619049 0.75200003
0.24426922 -0.00071492069 0.75066674
0.25485432 -0.002630794 0.75166672
0.2642636 -0.0056678089 0.75319999
0.20907524 0.0086504761 0.75700003
0.21555817 0.0075034802 0.75349993
0.22504574 0.0041972874 0.75466669
0.20601562 0.012216033 0.75461113
0.21214287 0.010714288 0.75000012
-0.011565715 0.11927143 0.75900006
-0.0052132951 0.11766618 0.75539982
0.00071714283 0.11904477 0.75300002
-0.021685716 0.12866858 0.75900006
-0.014606978 0.12557709 0.75667346
-0.0054141674 0.12505355 0.75320858
0.0011904764 0.12285717 0.75000012
-0.031082857 0.13878858 0.75900006
-0.024463257 0.13557979 0.75695127
-0.015447441 0.13503081 0.75285411
-0.0080554765 0.13227072 0.75174999
-0.03354368 0.14598635 0.75857151
-0.025151944 0.1447683 0.75353843
-0.018227147 0.14330907 0.75050008
-0.041202862 0.15758286 0.75900006
-0.035004493 0.15535761 0.7568776
-0.027744528 0.15422437 0.75174999
-0.043913972 0.16612698 0.7566666
-0.036027092 0.1646228 0.75280011
-0.029285716 0.1607143 0.75000006
-0.051901143 0.17681088 0.759
-0.045228265 0.17486984 0.7551201
-0.037635367 0.17480938 0.75052178
-0.05498172 0.18544483 0.75766689
-0.045294154 0.18482406 0.75341189
-0.038928572 0.18178572 0.75000006
-0.054924708 0.19474979 0.75647736
-0.046734292 0.19499451 0.75166678
-0.061442863 0.20529145 0.75900006
-0.055545006 0.204817 0.75543123
-0.04687969 0.20535307 0.75129044
-0.062846616 0.21602419 0.75749999
-0.055109128 0.21475394 0.75337243
-0.047350764 0.21510978 0.75153852
-0.064803302 0.22324957 0.75861543
-0.055612125 0.22292398 0.75449991
-0.048279524 0.22315286 0.75100005
0.21708044 0.0036306877 0.76288891
0.22214764 0.0016940742 0.7625556
-0.02123905 0.10839239 0.76900005
-0.016590636 0.10807732 0.76850009
-0.031126192 0.11901191 0.76900005
-0.024065886 0.11608882 0.76732165
-0.015340985 0.11469658 0.76418877
-0.0090595242 0.11487477 0.76100004
-0.040280953 0.12963143 0.76900005
-0.033998128 0.12620477 0.76796311
-0.025675707 0.12472229 0.76411778
-0.019102542 0.12186509 0.76166672
-0.043268569 0.13577653 0.7677061
-0.034983769 0.13491668 0.76481396
-0.028586669 0.13247906 0.76180005
-0.051077012 0.14800546 0.76771438
-0.044878006 0.14498922 0.76539522
-0.037683725 0.14372081 0.76161903
-0.061275877 0.15843843 0.76900005
-0.05412358 0.15586235 0.76595265
-0.04526801 0.15432557 0.76187164
-0.039499525 0.15111287 0.76100004
-0.06223841 0.16497828 0.76795244
-0.054594047 0.16521893 0.76424491
-0.046724498 0.16280842 0.76127779
-0.071773335 0.17796859 0.76900005
-0.064328678 0.17547379 0.76693356
-0.055827644 0.1746061 0.76182842
-0.07221441 0.18589486 0.76864713
-0.065109447 0.18476196 0.76385713
-0.057618573 0.18082809 0.76100004
-0.075011127 0.19507071 0.766532
-0.064741224 0.1951018 0.76167345
-0.075092569 0.20501077 0.76639581
-0.065877415 0.20512171 0.76149982
-0.082043022 0.21650288 0.76800007
-0.07501062 0.21508481 0.76517308
-0.066605605 0.21425542 0.7611599
-0.083107203 0.22467855 0.76844448
-0.074892715 0.2239424 0.76378375
-0.06836921 0.2249178 0.76100004
-0.031469632 0.10820699 0.77644444
-0.025022579 0.10524514 0.7750001
-0.018908996 0.10452889 0.77355558
-0.042180002 0.11839905 0.77700013
-0.034525562 0.11535931 0.77430248
-0.026569119 0.11267933 0.77185714
-0.053503405 0.12804303 0.77714288
-0.044523194 0.1251744 0.77372921
-0.037285909 0.12361265 0.77166671
-0.060017146 0.13781714 0.77800006
-0.054269828 0.13541003 0.7749474
-0.047791429 0.13325964 0.77200001
-0.06346146 0.14534225 0.7760002
-0.055633664 0.14461279 0.7727502
-0.048707627 0.1407381 0.77100009
-0.072948284 0.15626611 0.77600026
-0.065265998 0.15484928 0.77409536
-0.057827778 0.15240651 0.77183342
-0.080556199 0.1677613 0.77600002
-0.074414194 0.16511697 0.77515405
-0.067088254 0.16520742 0.77186948
-0.082440354 0.17562789 0.77600002
-0.075389363 0.17427796 0.77312839
-0.068700954 0.17193334 0.77149999
-0.091137148 0.18597905 0.77800006
-0.085008599 0.18496142 0.77562279
-0.076693289 0.18468137 0.77257705
-0.092866205 0.19549127 0.77607161
-0.085089326 0.19496545 0.77328891
-0.077834286 0.19018 0.77100003
-0.094258383 0.20520189 0.77497321
-0.085279241 0.20510522 0.77190489
-0.10002857 0.2133943 0.77800006
-0.094888367 0.21502316 0.77477276
-0.086163931 0.21457145 0.77193338
-0.1010826 0.22458948 0.7778182
-0.094798289 0.2250019 0.77393484
-0.08746963 0.2241015 0.77177775
-0.041328572 0.099188574 0.78900003
-0.034371629 0.096909672 0.78679997
-0.027268955 0.097584583 0.7822001
-0.051097143 0.10895715 0.78900003
-0.043900367 0.1063655 0.78738457
-0.035532005 0.10441779 0.78183359
-0.028087428 0.10120286 0.7802
-0.063344769 0.1191762 0.78866673
-0.054465942 0.11508983 0.78758532
-0.045555416 0.11469839 0.78290719
-0.038749117 0.11263675 0.78028578
-0.072387621 0.12899525 0.78900003
-0.064915463 0.12535071 0.78652161
-0.055529468 0.12334903 0.78181845
-0.049415953 0.12223881 0.78025001
-0.073896065 0.13585992 0.7875517
-0.0650075 0.13467601 0.78221273
-0.058388572 0.13208 0.78000003
-0.091674283 0.14953429 0.78900003
-0.083879471 0.14659819 0.78818506
-0.074819282 0.14496993 0.78304255
-0.067611076 0.14339407 0.78012502
-0.092419624 0.15578116 0.78829986
-0.08534047 0.15495184 0.78600019
-0.076848678 0.15372099 0.78096008
-0.10219429 0.16832 0.78900003
-0.094566435 0.16536109 0.787
-0.085141249 0.1644967 0.7824502
-0.078759849 0.16272016 0.78016675
-0.10299513 0.17586409 0.78879988
-0.09540154 0.17478253 0.78386974
-0.087186031 0.17391282 0.78038478
-0.11208001 0.18707941 0.78849995
-0.10464187 0.18556052 0.78715789
-0.095771737 0.18480377 0.78078973
-0.089885719 0.18051429 0.78000003
-0.1147195 0.19507016 0.78700012
-0.10510164 0.19480437 0.78333354
-0.097576469 0.19458488 0.77999997
-0.12082668 0.20713334 0.78800011
-0.11529237 0.20495906 0.785927
-0.10496514 0.20471121 0.78163284
-0.098800004 0.20280002 0.78000009
-0.1213082 0.21499048 0.78820008
-0.11506107 0.21507518 0.78458148
-0.10542822 0.21470955 0.78046525
-0.12335878 0.22546104 0.78830767
-0.11489218 0.22513208 0.78319526
-0.10624024 0.22511011 0.78008598
-0.1245819 0.23114669 0.78800005
-0.11484508 0.2309216 0.78299999
-0.10622857 0.23102859 0.78000003
-0.040786669 0.088413343 0.79800004
-0.035917647 0.087572329 0.79635298
-0.05215238 0.098044768 0.79650003
-0.044532545 0.095202602 0.79550016
-0.036397886 0.092743292 0.79244447
-0.063195512 0.1078524 0.79671443
-0.055076633 0.10512573 0.7936365
-0.046784088 0.10247575 0.7915293
-0.072833963 0.11734085 0.79611778
-0.065503247 0.11480708 0.79379511
-0.058485083 0.11169715 0.7906667
-0.090440005 0.12996 0.79800004
-0.084082574 0.12722476 0.79660892
-0.075956836 0.12452709 0.79373693
-0.069469839 0.12163492 0.79000008
-0.091879323 0.13573949 0.79729426
-0.084677294 0.13532072 0.79380953
-0.078096509 0.13308731 0.79100001
-0.10323166 0.14753905 0.79700011
-0.094775014 0.14485502 0.79453677
-0.086441822 0.14311056 0.79129994
-0.11176857 0.15806955 0.79699999
-0.10470565 0.15558054 0.79544199
-0.097125918 0.15399611 0.79171425
-0.12198 0.16910002 0.79800004
-0.11416117 0.16579232 0.79489666
-0.1056394 0.16487235 0.79297572
-0.098009914 0.16214402 0.79039997
-0.12338424 0.17532852 0.79631257
-0.11475065 0.17484784 0.79302341
-0.10740442 0.17469187 0.79063642
-0.12444675 0.18537849 0.795389
-0.11625776 0.1841656 0.79116142
-0.10834286 0.1820762 0.79000002
-0.13264452 0.19583239 0.79700011
-0.12542841 0.19518085 0.79333353
-0.11942826 0.19294064 0.79033339
-0.13349253 0.2055416 0.79638475
-0.12561628 0.20480022 0.79188901
-0.14085333 0.21710669 0.79800004
-0.13454975 0.21503057 0.79409528
-0.1261609 0.21478277 0.79077441
-0.14119311 0.2251946 0.79738474
-0.13437685 0.22472754 0.79230779
-0.12741791 0.22366935 0.79040003
-0.14113753 0.2322918 0.79760009
-0.13464965 0.23193012 0.79294115
-0.043917146 0.079359047 0.80900002
-0.053107355 0.087409392 0.8081429
-0.045288093 0.085092232 0.80392855
-0.038349207 0.083555564 0.80000007
-0.070113339 0.098620951 0.80900002
-0.064012639 0.097028226 0.80800009
-0.055691697 0.094495088 0.80411422
-0.047552701 0.091796309 0.80100006
-0.081784569 0.10858268 0.80860007
-0.074293502 0.10624284 0.80530012
-0.065844633 0.10370642 0.8027941
-0.058740005 0.10069619 0.801
-0.093466245 0.11810936 0.80863643
-0.084387727 0.11555504 0.80565852
-0.075834811 0.11381865 0.80129629
-0.1020962 0.1274235 0.80600017
-0.094878547 0.12494221 0.80417073
-0.08675915 0.12298459 0.80163646
-0.11343887 0.13604034 0.80827272
-0.10468344 0.13549951 0.80482608
-0.096375875 0.13426152 0.80100006
-0.122873 0.14694561 0.8078236
-0.11492922 0.14479983 0.80447626
-0.10636863 0.14369544 0.80177784
-0.099047631 0.14171429 0.80000001
-0.13154404 0.15670529 0.80877781
-0.12479495 0.15507393 0.80584449
-0.1152731 0.15468392 0.80155259
-0.10895238 0.15085715 0.80000001
-0.14099714 0.16873428 0.80900002
-0.13462591 0.16571102 0.80694276
-0.12560126 0.16488123 0.80200005
-0.11853801 0.16315341 0.80018193
-0.14328201 0.17548685 0.80803704
-0.13457106 0.17505667 0.80372506
-0.12828973 0.17384614 0.80022228
-0.15109894 0.18654086 0.80900002
-0.14442505 0.18513565 0.80661887
-0.13460532 0.1848025 0.80243587
-0.1287619 0.18285716 0.80000001
-0.15431358 0.195513 0.80862492
-0.14542499 0.19539073 0.80505121
-0.13716111 0.19377306 0.80092585
-0.15510695 0.20515297 0.80756396
-0.14532727 0.20475708 0.80276918
-0.13790478 0.20423529 0.80000013
-0.16239043 0.21701299 0.8086924
-0.15524548 0.21496421 0.80664086
-0.14572181 0.21462113 0.80243242
-0.13942859 0.21104762 0.80000001
-0.16285799 0.22443843 0.80823809
-0.15486301 0.22487414 0.80495226
-0.14641783 0.22496302 0.80071431
-0.16246432 0.2332999 0.80846679
-0.15505497 0.23319164 0.80508709
-0.14597782 0.23308098 0.80128586
-0.05298261 0.078868151 0.81700015
-0.047458667 0.07769201 0.81420004
-0.07281734 0.089344196 0.81860012
-0.064046137 0.08637476 0.81651998
-0.056269597 0.083924562 0.81328589
-0.048660003 0.081100002 0.81100005
-0.081884921 0.096761405 0.81884629
-0.074698433 0.09524779 0.81587189
-0.065657631 0.092488959 0.81199998
-0.059473336 0.090368576 0.81100005
-0.1014 0.10920001 0.81900007
-0.094489865 0.10633576 0.81732267
-0.085373528 0.1042672 0.81452638
-0.077472925 0.10266695 0.81228572
-0.11326858 0.11872287 0.81833339
-0.10442905 0.11590654 0.81750005
-0.095377982 0.1142431 0.81293756
-0.087588005 0.11106839 0.81100005
-0.12187354 0.12763791 0.81820005
-0.1150237 0.12533729 0.81670719
-0.10619911 0.12427593 0.81390923
-0.099637143 0.12126382 0.81100005
-0.13244401 0.13868402 0.81900007
-0.12442873 0.13525665 0.81573695
-0.1164528 0.13354033 0.81155556
-0.10890572 0.13053238 0.81100005
-0.14118001 0.14664002 0.81900007
-0.13479842 0.1456289 0.81608117
-0.12648486 0.14339137 0.81284612
-0.15132001 0.15990001 0.81900007
-0.14413902 0.15547186 0.81705725
-0.13575144 0.1546125 0.8127501
-0.15261595 0.16603225 0.81738108
-0.14513829 0.16509625 0.81447375
-0.13902858 0.16400224 0.81100005
-0.16146001 0.17862001 0.81900007
-0.15522692 0.1754763 0.81648719
-0.14799933 0.17420174 0.81246674
-0.16400373 0.18536125 0.81706071
-0.15588768 0.18458895 0.81331271
-0.17205463 0.19611691 0.81837517
-0.1650911 0.19471027 0.81505418
-0.15822268 0.19329678 0.81120008
-0.17269088 0.2052813 0.81821752
-0.16503178 0.20520675 0.81421232
-0.15988287 0.20468096 0.81100005
-0.18174002 0.2184 0.81900012
-0.1744522 0.21525407 0.81721431
-0.16673122 0.21437074 0.81320703
-0.18096004 0.22464001 0.81900018
-0.17509069 0.22490869 0.81664711
-0.16818237 0.22543356 0.81237501
-0.1817131 0.23234929 0.81800014
-0.17543493 0.23404872 0.81626672
-0.16804095 0.23420882 0.81262505
-0.07145191 0.079347149 0.82900006
-0.063853018 0.07734473 0.82671422
-0.055279747 0.073974766 0.8245151
-0.048857462 0.073939368 0.82300007
-0.082242221 0.088020638 0.82766676
-0.075022988 0.085474469 0.82487488
-0.066808902 0.083005719 0.82311118
-0.10026953 0.09869048 0.82900006
-0.094121143 0.097713158 0.82585716
-0.08596731 0.094068453 0.82406664
-0.12079715 0.10974382 0.82900006
-0.11447906 0.10735136 0.82680959
-0.10523659 0.10543013 0.82558066
-0.096786939 0.10204805 0.82136375
-0.089919046 0.10086571 0.82100004
-0.13027143 0.1192181 0.82900006
-0.12337636 0.11652601 0.82647842
-0.11502335 0.11449591 0.82283336
-0.10709344 0.11161493 0.82211119
-0.14132477 0.12869239 0.82900006
-0.13450566 0.1264673 0.82624143
-0.12621556 0.12428647 0.82312882
-0.11963143 0.12119524 0.82100004
-0.15120414 0.13910699 0.82833338
-0.14396051 0.13580747 0.82693112
-0.13519399 0.13474198 0.82242852
-0.12862335 0.13175097 0.82100004
-0.16027334 0.14922002 0.82900006
-0.15364878 0.1457656 0.8273201
-0.14531383 0.14468311 0.82271421
-0.13891843 0.14256732 0.82100004
-0.16295847 0.15593588 0.82820016
-0.15525667 0.15485585 0.82435006
-0.14855361 0.15257648 0.82157153
-0.1718853 0.16737539 0.82842863
-0.16511747 0.16515341 0.82600015
-0.15709811 0.16376948 0.8219474
-0.18119574 0.17803763 0.82900006
-0.17411415 0.17577192 0.82637161
-0.16489956 0.1743378 0.82263148
-0.18317851 0.18547384 0.82724994
-0.17519638 0.18498294 0.82431585
-0.16810955 0.18307744 0.82100004
-0.19027525 0.19817048 0.82900012
-0.18442886 0.19563457 0.82583874
-0.17673253 0.19395366 0.82203698
-0.19101849 0.20522571 0.82880014
-0.18476939 0.20541307 0.82427275
-0.1778512 0.20504525 0.82175004
-0.19429235 0.2158594 0.82660013
-0.18540832 0.21452984 0.82340002
-0.17853492 0.21215686 0.82100004
-0.19504619 0.22496307 0.8267647
-0.1864167 0.22494406 0.82227987
-0.20132861 0.23527811 0.82900012
-0.1950185 0.23511769 0.82607329
-0.1866601 0.23518556 0.82291669
-0.20132859 0.24080478 0.82900006
-0.19974953 0.24080478 0.82900006
-0.064282857 0.068586282 0.83740008
-0.057939578 0.068017676 0.83588898
-0.082837783 0.078051113 0.83722222
-0.074569806 0.075382218 0.83493549
-0.065824173 0.072852477 0.83366668
-0.059500005 0.070606671 0.83300006
-0.093852744 0.087011203 0.83747619
-0.085486956 0.084358878 0.83382362
-0.078404769 0.082024358 0.83157146
-0.12145524 0.099880956 0.83900005
-0.11384287 0.098003216 0.83662504
-0.10463773 0.095578104 0.8355
-0.0962051 0.093022406 0.83366668
-0.13205683 0.10782795 0.8386668
-0.12456549 0.10549827 0.83616132
-0.11515305 0.10277744 0.83270007
-0.10646464 0.10125892 0.83157146
-0.1435456 0.11754586 0.838
-0.1351665 0.11545298 0.83520526
-0.12668136 0.11266292 0.83215803
-0.1526875 0.12592345 0.83708709
-0.14485751 0.12441904 0.83352625
-0.13647561 0.12238401 0.83119994
-0.17019716 0.1390343 0.83900005
-0.16422659 0.13649794 0.83774996
-0.1555869 0.13482656 0.83423543
-0.14786352 0.13287437 0.83161557
-0.17389099 0.14648615 0.83718193
-0.16505516 0.1450087 0.83270717
-0.15732287 0.14239252 0.83128583
-0.18220097 0.15628287 0.83823085
-0.17504403 0.15517153 0.83495122
-0.16704555 0.15406078 0.83126682
-0.19150507 0.16806637 0.83900011
-0.18431747 0.16538246 0.83577794
-0.17521627 0.16434747 0.83192861
-0.16857429 0.16066001 0.83100003
-0.20056096 0.17978573 0.83900005
-0.19371033 0.17564476 0.83745164
-0.18499151 0.17443235 0.83265525
-0.17846714 0.17174003 0.83099997
-0.20244786 0.18628168 0.83812499
-0.19499204 0.18540421 0.83456743
-0.18799312 0.18333563 0.8320002
-0.20399511 0.19503899 0.83589667
-0.19528465 0.19486266 0.83252954
-0.18915144 0.19310859 0.83100003
-0.23345667 0.20425384 0.83450001
-0.21014953 0.20695335 0.83900011
-0.20463781 0.20488758 0.83583868
-0.19608268 0.20456879 0.83185714
-0.23332192 0.21014953 0.83900005
-0.2213362 0.21893905 0.83900005
-0.21533468 0.2157205 0.83863658
-0.20500711 0.21471493 0.83329284
-0.19769916 0.2121271 0.8314445
-0.22213526 0.22645009 0.83900017
-0.21499695 0.22508308 0.83648723
-0.20480452 0.22526103 0.83203036
-0.2149877 0.23482797 0.83631426
-0.20567043 0.23485574 0.83149999
-0.2065461 0.24141696 0.83220005
-0.080857143 0.068728574 0.84900004
-0.073092505 0.067300335 0.84664708
-0.065259054 0.064715087 0.8441667
-0.10095239 0.079145715 0.84800005
-0.094496399 0.077872239 0.84573686
-0.085639432 0.07430505 0.84527594
-0.077770241 0.071134761 0.8440001
-0.1210162 0.08921238 0.8490001
-0.11460902 0.087441206 0.84800005
-0.10453707 0.084823877 0.8448379
-0.09558291 0.082754903 0.84170586
-0.13436435 0.09800151 0.84842861
-0.12436418 0.095550984 0.8464669
-0.11577605 0.093768485 0.84343475
-0.10762361 0.091599464 0.84122229
-0.15174191 0.1086181 0.8490001
-0.1440409 0.10619306 0.84737062
-0.1356658 0.10449491 0.84405875
-0.12754168 0.10146976 0.84225005
-0.16261788 0.11754 0.84855562
-0.1546483 0.11566218 0.84660017
-0.14606935 0.11347677 0.84308332
-0.13856475 0.11133238 0.84100002
-0.17220254 0.12616539 0.84800005
-0.16490075 0.12473723 0.84587187
-0.15761708 0.12458407 0.84180009
-0.18259104 0.13708708 0.84885722
-0.17522492 0.13496524 0.84524244
-0.16611715 0.13213341 0.84153324
-0.19290489 0.14674762 0.84837502
-0.18468893 0.14558771 0.8446216
-0.17680913 0.14269517 0.84206653
-0.20235389 0.15779577 0.84842861
-0.19468918 0.15538725 0.84563178
-0.18676913 0.15471791 0.84129995
-0.21144143 0.16777858 0.84900004
-0.20442756 0.16515565 0.84718204
-0.19536594 0.16470191 0.84242862
-0.18918496 0.16227296 0.84100002
-0.22121643 0.17697142 0.84850007
-0.21447688 0.17567474 0.84778965
-0.20524421 0.17465152 0.84511435
-0.19802399 0.17267853 0.84118187
