# .PCD v0.7 - Point Cloud Data file format
VERSION 0.7
FIELDS x y z
SIZE 4 4 4
TYPE F F F
COUNT 1 1 1
WIDTH 1443
HEIGHT 1
VIEWPOINT 0 0 0 1 0 0 0
POINTS 1443
DATA ascii
0.0079771429 -0.13561144 1.0470001
0.013519797 -0.13347816 1.0459287
-0.01171643 -0.12389499 1.0470001
-0.0079771429 -0.12464285 1.0470001
0.0079771429 -0.12564 1.0470001
0.01331125 -0.12477019 1.0449374
-0.010968572 -0.11766286 1.0470001
-0.0079771429 -0.11766286 1.0470001
0.0070466674 -0.22046 1.057
0.015564617 -0.22216362 1.0570002
-0.14261112 -0.21274221 1.0570002
-0.051340003 -0.21039334 1.057
-0.04504833 -0.21114832 1.057
-0.034167454 -0.21335413 1.057
-0.025426541 -0.21483159 1.0563182
-0.016256589 -0.21400103 1.0557501
-0.0050282539 -0.2131675 1.0563334
0.00546963 -0.21486489 1.0553333
0.01503962 -0.21457334 1.0528001
-0.071473338 -0.20032667 1.057
-0.064225338 -0.20072933 1.057
-0.054647509 -0.20349051 1.0568236
-0.045287147 -0.2053026 1.0566999
-0.03516062 -0.20492385 1.0547501
-0.024833374 -0.20543177 1.0540003
-0.015045866 -0.20559594 1.0530403
-0.0050117332 -0.20559536 1.05304
0.0050190464 -0.20578098 1.0540003
0.015037943 -0.20554572 1.0528001
0.021000002 -0.20100002 1.0500001
-0.15251 -0.19277668 1.057
-0.14999335 -0.19831334 1.057
-0.082546666 -0.19026001 1.057
-0.0748289 -0.19380726 1.0569998
-0.065529704 -0.19476508 1.0554287
-0.055389114 -0.19483374 1.0556959
-0.04516422 -0.19570692 1.0538001
-0.035081223 -0.19544969 1.0524
-0.025025602 -0.1951801 1.0509599
-0.015002896 -0.19503035 1.0501598
-0.005004114 -0.19526835 1.0514401
0.0050141709 -0.19556758 1.0530403
0.015014934 -0.19523923 1.0512798
0.021032 -0.19529562 1.0516001
-0.16106667 -0.18019333 1.057
-0.15469112 -0.18388444 1.0569999
-0.14634416 -0.18321332 1.057
-0.13733812 -0.18105619 1.0570002
-0.11274667 -0.18422 1.0570002
-0.10637111 -0.18422003 1.057
-0.095633343 -0.18321334 1.057
-0.084930874 -0.18326633 1.0569999
-0.075762615 -0.18457015 1.0569998
-0.065082893 -0.18554655 1.0540419
-0.054842856 -0.18500032 1.0519564
-0.045078166 -0.1853119 1.05176
-0.035000008 -0.18500003 1.0499997
-0.025000004 -0.185 1.0499997
-0.015000002 -0.18500002 1.0499997
-0.0050001526 -0.18502884 1.0501597
0.0050001531 -0.18502882 1.0501598
0.015002896 -0.1850276 1.0501598
0.021016002 -0.18513793 1.0508002
-0.16341557 -0.17516002 1.0570002
-0.15502667 -0.17012668 1.057
-0.14294668 -0.17415333 1.057
-0.13690667 -0.17415336 1.0569999
-0.091942221 -0.17348224 1.0570002
-0.085768156 -0.17437454 1.0562173
-0.075331785 -0.17476629 1.0546253
-0.065093108 -0.17524153 1.0514401
-0.055000003 -0.175 1.0499997
-0.045000006 -0.17500001 1.0499997
-0.035166673 -0.17516667 1.0499998
-0.026428578 -0.17485715 1.0500002
-0.015888888 -0.17600003 1.05
-0.0044545457 -0.17527273 1.0499998
0.0044285716 -0.17557143 1.0499998
0.015347828 -0.17526086 1.0499998
0.021000002 -0.17900001 1.0500001
-0.15502667 -0.16509335 1.057
-0.14261112 -0.16744223 1.057
-0.13627751 -0.16471583 1.057
-0.10427884 -0.16349451 1.057
-0.095633343 -0.16408667 1.0569997
-0.085164346 -0.16418655 1.0547781
-0.075239442 -0.16512039 1.0545002
-0.065093108 -0.1652275 1.05144
-0.055 -0.16499999 1.0499997
-0.044999998 -0.16500002 1.0499997
-0.035761908 -0.16480954 1.0499998
-0.025000004 -0.16740003 1.0500001
-0.0033076922 -0.16546157 1.0500002
0.0055714292 -0.16557142 1.0499998
0.015 -0.16500004 1.0499997
-0.13590002 -0.1550267 1.0570002
-0.10339905 -0.15632096 1.0570002
-0.095633343 -0.15502666 1.0569999
-0.085790366 -0.15525039 1.0569999
-0.075228415 -0.15564319 1.0555001
-0.06516213 -0.15537609 1.0525601
-0.055000003 -0.15500003 1.0499997
-0.044999998 -0.15500003 1.0499997
-0.035347831 -0.15491308 1.0499998
-0.029000003 -0.15100002 1.0500001
-0.0029999998 -0.15500005 1.0500002
0.0049999999 -0.15500003 1.0499997
0.015750002 -0.15825002 1.0500001
-0.13623556 -0.14697333 1.0570002
-0.094291113 -0.14507185 1.057
-0.088083342 -0.14798 1.057
-0.07542605 -0.14581776 1.05592
-0.065247625 -0.14555238 1.0540003
-0.055026975 -0.1450654 1.0504799
-0.045000006 -0.14500004 1.0499997
-0.035000004 -0.14500001 1.0499997
-0.028111113 -0.14455555 1.0500001
-0.0038421049 -0.14478949 1.05
0.0044545457 -0.14527273 1.0499998
-0.093803026 -0.13754728 1.0570002
-0.085741729 -0.13563739 1.0569998
-0.075424686 -0.13576251 1.0559199
-0.065247618 -0.13551426 1.0540003
-0.055152874 -0.13536344 1.0528401
-0.044999998 -0.13499999 1.0499997
-0.035000004 -0.13500004 1.0499997
-0.025272731 -0.13445453 1.0499998
-0.0165 -0.13150001 1.0500001
-0.003671746 -0.13550223 1.0513333
0.0044285716 -0.13480952 1.0499998
0.014 -0.13700001 1.0500001
-0.085092939 -0.12725452 1.057
-0.075500011 -0.12638241 1.0569998
-0.065352775 -0.12567298 1.0556799
-0.055293754 -0.12565984 1.05556
-0.04504358 -0.12511182 1.0509601
-0.035000004 -0.125 1.0499997
-0.024999999 -0.12499998 1.0499997
-0.016529413 -0.12535295 1.0500001
-0.0030035551 -0.1251265 1.0510669
0.003588235 -0.12452942 1.0500001
0.016028572 -0.12523048 1.052
-0.065433338 -0.11979334 1.057
-0.053353336 -0.11778 1.057
-0.044782583 -0.1170685 1.0559412
-0.035125487 -0.11539688 1.0536801
-0.025050439 -0.11522321 1.0520803
-0.015350976 -0.11475753 1.0501739
-0.004434376 -0.1146343 1.0519049
0.0050138664 -0.11532959 1.0530401
0.012294546 -0.11556 1.0518183
-0.041273333 -0.10972667 1.057
-0.035233334 -0.10570002 1.0569997
-0.02515444 -0.10563909 1.0563999
-0.015053487 -0.10534833 1.0535201
-0.0050098668 -0.10528231 1.0528401
0.0050292192 -0.10555462 1.0555601
0.01275121 -0.10503165 1.0549231
-0.03408286 -0.09879715 1.0570002
-0.024692941 -0.097054526 1.057
-0.01509497 -0.095589451 1.0565197
-0.0056594992 -0.096471541 1.0557369
0.0052011125 -0.09580113 1.0569998
0.012354546 -0.095633335 1.0570002
-0.013489335 -0.089190677 1.057
-0.0080533335 -0.08758001 1.0570002
0.0064175013 -0.086447492 1.057
0.012281335 -0.085768007 1.057
-0.13718571 -0.24083716 1.067
-0.063003808 -0.24083716 1.067
-0.059955239 -0.24083716 1.067
-0.042680003 -0.24083716 1.067
-0.034804523 -0.24159928 1.067
-0.02489667 -0.24337766 1.0670002
-0.015399196 -0.24458924 1.0670002
-0.0062032812 -0.24334465 1.0661112
0.0058430955 -0.24210736 1.067
0.014791218 -0.2426437 1.067
0.021340001 -0.24083716 1.067
-0.13667144 -0.23790954 1.0630001
-0.095521905 -0.23067524 1.067
-0.085360005 -0.23067524 1.067
-0.072149515 -0.23474002 1.067
-0.06494619 -0.23542763 1.0655
-0.056271426 -0.23523916 1.0656666
-0.045051485 -0.23492594 1.0651177
-0.035446674 -0.23496194 1.0633999
-0.025041733 -0.23539513 1.0632727
-0.015174744 -0.23572728 1.0622798
-0.0053194445 -0.23558788 1.0643332
0.0047873585 -0.23537329 1.0631818
0.01528922 -0.23548543 1.0636818
0.021340001 -0.23880477 1.067
-0.14072096 -0.22171144 1.0630001
-0.13540572 -0.22369838 1.0655715
-0.12388285 -0.22217619 1.0670002
-0.11516827 -0.22390063 1.067
-0.1046228 -0.22447994 1.0665294
-0.094328575 -0.22517526 1.0649999
-0.084966339 -0.22528869 1.0658237
-0.075576439 -0.22584899 1.063
-0.065804765 -0.22576101 1.0629998
-0.055680964 -0.22576095 1.0629998
-0.045528114 -0.22560988 1.0622798
-0.035370253 -0.22535618 1.0610799
-0.02525661 -0.22527879 1.0607198
-0.015152229 -0.22527784 1.0607198
-0.0050560706 -0.22540832 1.062125
0.0047738529 -0.22584981 1.0608182
0.014638096 -0.22764766 1.0600002
0.021200001 -0.22916192 1.0600001
-0.14066033 -0.21570158 1.0600001
-0.13479565 -0.21511081 1.0621303
-0.12480552 -0.2151124 1.0654
-0.11412297 -0.21508497 1.063
-0.10410651 -0.21546844 1.063
-0.094921827 -0.21509027 1.0603001
-0.085847005 -0.2151273 1.06048
-0.075817831 -0.21532409 1.06144
-0.065649211 -0.21512778 1.06048
-0.055692069 -0.21519685 1.0599999
-0.04554734 -0.21657255 1.0600002
-0.037604764 -0.2173 1.0600001
-0.013376191 -0.21780476 1.0600001
-0.0050502173 -0.21789406 1.0605456
0.0010095239 -0.21805716 1.0600001
-0.14401078 -0.20467001 1.0599999
-0.13441524 -0.20516536 1.0611999
-0.12450927 -0.20549056 1.0628798
-0.11419266 -0.20514373 1.0610799
-0.10475951 -0.20565785 1.0623181
-0.095553614 -0.20467 1.0599999
-0.085809521 -0.20493338 1.0599999
-0.075882547 -0.20510161 1.0599999
-0.065921918 -0.20584193 1.0600001
-0.057831299 -0.20752925 1.0600001
-0.15109207 -0.19450161 1.0600001
-0.14436193 -0.19483805 1.0599999
-0.13438553 -0.19501546 1.0609598
-0.12422834 -0.19492745 1.0604799
-0.11407618 -0.19483812 1.0599999
-0.10503548 -0.19492252 1.0604501
-0.095904745 -0.19483806 1.0599999
-0.086072885 -0.19518925 1.0599999
-0.079247624 -0.19736192 1.0600001
-0.14436191 -0.1865937 1.0600002
-0.13366096 -0.18555048 1.0600001
-0.12417144 -0.18474287 1.0599999
-0.11521191 -0.18474288 1.0600002
-0.10499047 -0.18474288 1.0600003
-0.095904768 -0.18541589 1.0600003
-0.087828577 -0.18777144 1.0600001
-0.17109239 -0.17109239 1.0630001
-0.16379523 -0.17136666 1.0600001
-0.15436935 -0.17499876 1.0599999
-0.14739048 -0.17464764 1.0600002
-0.13123809 -0.17464761 1.0600002
-0.12417144 -0.1746476 1.0599999
-0.11407618 -0.17464761 1.0599999
-0.10499047 -0.17464761 1.0600001
-0.097073697 -0.17486015 1.0600001
-0.1735447 -0.16391313 1.0612353
-0.16455241 -0.16455238 1.0599999
-0.15398206 -0.16407731 1.0600002
-0.14496763 -0.16374478 1.0600001
-0.13188052 -0.16418529 1.0600002
-0.12417144 -0.16455236 1.0599999
-0.11407618 -0.16455236 1.0599999
-0.10734603 -0.16791748 1.0600002
-0.18434042 -0.15350667 1.0624706
-0.17484877 -0.15463199 1.0611999
-0.16468118 -0.15457748 1.06084
-0.15449303 -0.15449142 1.0602399
-0.14436193 -0.15445715 1.0599999
-0.13188051 -0.15409005 1.0600002
-0.12417144 -0.15445714 1.0599999
-0.11407617 -0.15445714 1.0599999
-0.10568936 -0.15321465 1.0600002
-0.098933339 -0.15041904 1.0600001
-0.083285719 -0.15193334 1.0600001
-0.18470201 -0.14544438 1.0649999
-0.17496692 -0.14462225 1.0619198
-0.16473615 -0.14452717 1.0611999
-0.15447508 -0.14437869 1.0601199
-0.14471306 -0.14409855 1.0599999
-0.1336101 -0.14348394 1.0614119
-0.12450925 -0.14475457 1.0628798
-0.11407618 -0.1443619 1.0599999
-0.10499048 -0.1443619 1.0600001
-0.096577778 -0.14597717 1.0600003
-0.085506678 -0.14527048 1.0600001
-0.23067524 -0.13108857 1.067
-0.22381596 -0.13388309 1.067
-0.18393049 -0.13515335 1.0670003
-0.17535646 -0.13480788 1.0642798
-0.16470188 -0.13438553 1.0609599
-0.15447508 -0.1342814 1.0601199
-0.14436191 -0.13426667 1.0599999
-0.13441524 -0.13441865 1.0611999
-0.1244272 -0.13453957 1.0621599
-0.11416522 -0.134371 1.0608399
-0.10503548 -0.13432194 1.06045
-0.096802108 -0.13336933 1.0600001
-0.083790481 -0.13830476 1.0600001
-0.23270762 -0.12905619 1.0670002
-0.22661048 -0.12905619 1.0670002
-0.18460794 -0.12465268 1.067
-0.17597771 -0.12525652 1.0669999
-0.16526861 -0.12470663 1.0645999
-0.1548591 -0.12449384 1.0627599
-0.14436191 -0.12417144 1.0599999
-0.13447651 -0.12436686 1.0616798
-0.12452286 -0.12452286 1.0629998
-0.11439907 -0.12452289 1.0629998
-0.10462737 -0.12425877 1.063
-0.095366716 -0.12446222 1.0601364
-0.086430773 -0.12199707 1.0600002
-0.07571429 -0.12089048 1.0600001
-0.065619051 -0.12013334 1.0600001
-0.058552384 -0.12013334 1.0600001
-0.17173618 -0.11787809 1.067
-0.16538499 -0.11660787 1.0670002
-0.15518636 -0.11490601 1.0661666
-0.14505282 -0.11461832 1.0650797
-0.13484569 -0.11457064 1.0645999
-0.12472964 -0.11458391 1.0647599
-0.11453773 -0.11453405 1.0642799
-0.1044331 -0.11457004 1.0645999
-0.094619609 -0.11401815 1.0620453
-0.08553081 -0.1144353 1.060913
-0.075758517 -0.11413892 1.0605999
-0.065619044 -0.11407618 1.0599999
-0.056161404 -0.11311978 1.0600001
-0.046438098 -0.11205714 1.0600002
0.015160001 -0.11420192 1.0612
-0.15141238 -0.1077162 1.067
-0.14484625 -0.10701268 1.0670002
-0.13534357 -0.10626799 1.0665001
-0.12458495 -0.10656451 1.0670003
-0.11452802 -0.10498563 1.0666522
-0.10463531 -0.10463502 1.0666798
-0.094380617 -0.10452393 1.0655599
-0.085040018 -0.10427524 1.063
-0.075928569 -0.10427523 1.0629998
-0.065941401 -0.10441994 1.060913
-0.055523809 -0.10499048 1.0600001
-0.045428574 -0.10499046 1.0600001
0.015185716 -0.10832477 1.0630001
-0.1077162 -0.098570473 1.067
-0.091118418 -0.097893022 1.0670002
-0.084426582 -0.094296783 1.0657272
-0.075271264 -0.094404593 1.0649129
-0.065423623 -0.094781145 1.0631154
-0.055633631 -0.095079735 1.0620999
-0.045673449 -0.095494412 1.0604444
-0.035782013 -0.094670907 1.0600001
-0.026247621 -0.092876196 1.0600001
-0.0030285716 -0.092876196 1.0600001
0.0010095239 -0.091866672 1.0600001
-0.063259833 -0.084683217 1.0666364
-0.055997584 -0.084635586 1.0637273
-0.045277022 -0.085667096 1.0626086
-0.035389792 -0.085942104 1.0616798
-0.025244724 -0.085828252 1.0602399
-0.015546667 -0.084900953 1.0600001
-0.0040933331 -0.085220963 1.0606316
0.0025798944 -0.084239163 1.0600001
0.014503175 -0.081273973 1.0623335
-0.061987624 -0.077230476 1.067
-0.054786429 -0.076974168 1.06525
-0.045620076 -0.076027468 1.06444
-0.035237711 -0.075538158 1.0638888
-0.025537487 -0.075305924 1.0634284
-0.015176116 -0.075874858 1.0622798
-0.0048403395 -0.075253539 1.0627142
0.0050567612 -0.075866051 1.0621599
0.014388355 -0.074957624 1.0649545
-0.023746097 -0.06757544 1.0654
-0.015197143 -0.065851234 1.0637999
-0.0057113287 -0.065959148 1.0655264
0.0050753141 -0.065979384 1.0658798
0.013207253 -0.065875828 1.0666925
-0.014226668 -0.059955239 1.067
0.0065036193 -0.058329333 1.0670002
0.011178096 -0.058939047 1.067
-0.05436286 -0.26155716 1.077
-0.041028574 -0.26155716 1.077
-0.025642857 -0.26155716 1.077
-0.013676193 -0.26258287 1.0770001
-0.0055015585 -0.26286259 1.0769999
0.001709524 -0.26224098 1.077
-0.13231716 -0.25232571 1.0770001
-0.12411144 -0.25232568 1.077
-0.11549544 -0.25171027 1.077
-0.10535552 -0.25320488 1.0769999
-0.095066741 -0.25298789 1.0748667
-0.084765725 -0.25464386 1.0745
-0.075144723 -0.25504607 1.0769999
-0.064090393 -0.25468105 1.075909
-0.05423516 -0.25479975 1.0744399
-0.044212706 -0.25522161 1.0755
-0.035032522 -0.25457948 1.0743333
-0.02582762 -0.2549355 1.0735217
-0.015333856 -0.25556242 1.07335
-0.0048296973 -0.2552295 1.073909
0.0048560244 -0.25551522 1.0759565
0.014518824 -0.25465426 1.0753529
0.023932191 -0.25387391 1.0740001
-0.13292898 -0.24477825 1.0736874
-0.12519713 -0.24474348 1.0756086
-0.1154116 -0.24429569 1.074
-0.10527249 -0.24427225 1.0731601
-0.095037133 -0.24423522 1.073
-0.084809154 -0.24523571 1.0729001
-0.074602388 -0.24525987 1.073
-0.064644709 -0.24543667 1.0714117
-0.054520376 -0.24506728 1.0711666
-0.045785297 -0.24500149 1.0713124
-0.036202621 -0.24627362 1.07075
-0.026240475 -0.24737382 1.0700001
-0.014994559 -0.24908438 1.0700002
-0.0041698706 -0.247199 1.0705454
0.0056047621 -0.2471191 1.0699999
0.015965082 -0.24728888 1.0699999
0.022273473 -0.24704628 1.0700002
-0.13388148 -0.23517774 1.0718461
-0.12567614 -0.23500572 1.0728501
-0.11547525 -0.23503815 1.0730001
-0.10512549 -0.23474427 1.0716499
-0.09471757 -0.23486829 1.0706667
-0.084580958 -0.23641907 1.0699999
-0.076058023 -0.23725285 1.0699999
-0.051971432 -0.23845714 1.0700001
-0.04925397 -0.23879683 1.0700001
0.021400001 -0.2374381 1.0700001
-0.14164762 -0.22520953 1.0700001
-0.13247621 -0.22724763 1.0700002
-0.12624103 -0.22714798 1.0702143
-0.1152181 -0.2294143 1.0706
-0.10598096 -0.22928573 1.0700001
-0.080504768 -0.22724763 1.0700001
-0.39469486 -0.20329654 1.077
-0.38772002 -0.20616858 1.077
-0.3957206 -0.19509085 1.077
-0.37223119 -0.19336341 1.0758572
-0.36890763 -0.1910962 1.0730001
-0.41233712 -0.18873143 1.077
-0.40310574 -0.18668 1.0770001
-0.3943139 -0.1879988 1.0770001
-0.37392393 -0.18747166 1.0756667
-0.36762929 -0.18585524 1.07225
-0.35694855 -0.16821715 1.077
-0.3600257 -0.15590857 1.077
-0.35553819 -0.15526751 1.0769999
-0.34566572 -0.15314704 1.0769999
-0.33628637 -0.15177049 1.0743334
-0.37028286 -0.14770286 1.077
-0.36618003 -0.14770286 1.0770001
-0.35694855 -0.14872858 1.077
-0.34320402 -0.14606173 1.077
-0.3350881 -0.1442022 1.0731428
-0.3285206 -0.1433564 1.0706002
-0.19871429 -0.14572382 1.0700001
-0.18852381 -0.14164762 1.0700001
-0.33354366 -0.13604702 1.0769999
-0.32506844 -0.13422403 1.0758749
-0.31538355 -0.13368452 1.0745454
-0.30671605 -0.13342242 1.0732307
-0.29816398 -0.13217565 1.0758573
-0.26155716 -0.13026571 1.077
-0.24423526 -0.13182572 1.0730001
-0.22215241 -0.13247621 1.0700001
-0.21501906 -0.1324762 1.0700001
-0.20392278 -0.13451429 1.0699999
-0.19463809 -0.13553336 1.0699998
-0.18852381 -0.13553335 1.0700001
-0.31181717 -0.12821428 1.077
-0.30372807 -0.12551957 1.0761999
-0.29481578 -0.12674001 1.0761112
-0.28490922 -0.12436075 1.0752221
-0.25501558 -0.12520033 1.0744286
-0.24437734 -0.12550886 1.072875
-0.23512813 -0.12504391 1.0713334
-0.2250459 -0.12484884 1.0705453
-0.21511684 -0.1253977 1.0704799
-0.20482858 -0.12534286 1.0699998
-0.19463812 -0.12534285 1.0699998
-0.18852381 -0.1284 1.0700001
-0.17425716 -0.12228572 1.0700001
-0.28339583 -0.11573259 1.0765294
-0.27475214 -0.11592589 1.0746363
-0.26642281 -0.11559636 1.0761578
-0.25293714 -0.11548641 1.075857
-0.24445558 -0.11557581 1.0739599
-0.2350821 -0.115496 1.0732001
-0.22584094 -0.11547525 1.073
-0.21555024 -0.11543512 1.0726399
-0.20508398 -0.11529353 1.0713199
-0.19470428 -0.11519042 1.0703598
-0.18448874 -0.1151773 1.0702399
-0.17507242 -0.11454095 1.0699999
-0.16552244 -0.11194966 1.0700002
-0.15999047 -0.11107619 1.0700001
-0.27335286 -0.10923857 1.077
-0.26976287 -0.10872571 1.077
-0.25232571 -0.10872571 1.077
-0.24459869 -0.10756325 1.077
-0.2355364 -0.1066203 1.0769999
-0.22513069 -0.10590074 1.0761111
-0.2156219 -0.1052562 1.073
-0.20535716 -0.10523172 1.07276
-0.19518383 -0.10525619 1.073
-0.18496476 -0.1052562 1.073
-0.1745135 -0.10511266 1.0715599
-0.16515557 -0.10500435 1.0704499
-0.15626876 -0.10469609 1.0699999
-0.14623335 -0.1024143 1.0699999
-0.13508044 -0.10201799 1.0700001
-0.1259543 -0.10210859 1.0700001
-0.11820953 -0.10088572 1.0700001
-0.22129786 -0.096160717 1.077
-0.21457118 -0.094946854 1.0751817
-0.20496097 -0.095823273 1.0751666
-0.19497338 -0.096489482 1.0758234
-0.18529667 -0.095202625 1.0749198
-0.17479907 -0.095064573 1.07332
-0.16469699 -0.094866835 1.0730001
-0.15493782 -0.094841324 1.0718261
-0.14542265 -0.095070444 1.0703912
-0.13568282 -0.094875894 1.0711999
-0.12559657 -0.094960012 1.0721599
-0.11529488 -0.09488491 1.0713198
-0.10478462 -0.09449511 1.070913
-0.095259584 -0.094331346 1.0702727
-0.088657148 -0.09069524 1.0700001
-0.21540001 -0.088211425 1.077
-0.18514144 -0.087698579 1.0769999
-0.17539716 -0.087185703 1.077
-0.16510014 -0.087163605 1.0767334
-0.15394703 -0.085337676 1.0737273
-0.14430283 -0.084940329 1.0745999
-0.1344119 -0.084882393 1.0759999
-0.12461215 -0.084979773 1.0761666
-0.11509222 -0.085222006 1.0746365
-0.10528636 -0.084842488 1.07332
-0.09502697 -0.084808156 1.07288
-0.084677406 -0.084673047 1.0711999
-0.074424304 -0.084617063 1.0704799
-0.067370377 -0.084128052 1.0700001
0.017323811 -0.080504768 1.0700001
-0.15077999 -0.078979999 1.077
-0.14377093 -0.077270478 1.0769999
-0.13795857 -0.077441424 1.077
-0.11402525 -0.076415718 1.0769999
-0.10544524 -0.075023666 1.0766666
-0.095293149 -0.074795619 1.0758798
-0.084896423 -0.074663363 1.0739599
-0.074599043 -0.074599065 1.073
-0.064913072 -0.07395415 1.0721428
-0.055874817 -0.071965829 1.071
-0.045857143 -0.070314288 1.0700001
-0.037704766 -0.070314288 1.0700001
-0.10400742 -0.068312578 1.077
-0.09539143 -0.067697138 1.077
-0.08466088 -0.066987038 1.0769999
-0.074547537 -0.065133072 1.0762726
-0.064505711 -0.06450022 1.0750798
-0.054202557 -0.06442526 1.0738
-0.044951811 -0.064360857 1.0727
-0.035731126 -0.064311989 1.07192
-0.026089918 -0.062791429 1.0705293
-0.015965082 -0.060123812 1.0700001
-0.0043309527 -0.060888097 1.0700001
0.0010190477 -0.060123812 1.0700001
-0.071458101 -0.057781905 1.077
-0.064247012 -0.057160258 1.0769999
-0.053715043 -0.055334587 1.0769999
-0.044634718 -0.054043632 1.0762726
-0.035456274 -0.054493796 1.0743912
-0.025550973 -0.054163154 1.0730799
-0.015316801 -0.054115817 1.0721599
-0.0051083053 -0.054160576 1.0730799
-0.04347451 -0.046314947 1.0769999
-0.034874287 -0.04513143 1.0769999
-0.025642857 -0.04513143 1.0769999
-0.015374286 -0.04406992 1.0761999
-0.0059661055 -0.045150541 1.0760586
-0.011282858 -0.037951428 1.077
-0.014493333 -0.28054953 1.087
-0.0082819052 -0.28054953 1.087
-0.12526381 -0.27019715 1.087
-0.11698191 -0.27019715 1.0870001
-0.08385428 -0.27123237 1.087
-0.074951246 -0.27185354 1.087
-0.065478809 -0.27252644 1.087
-0.054571845 -0.27419019 1.087
-0.045145836 -0.27463239 1.086625
-0.034162857 -0.27330288 1.087
-0.024206001 -0.27390507 1.0861
-0.015505572 -0.2749581 1.0853499
-0.0059456551 -0.27461985 1.0860624
0.0053354586 -0.27354175 1.087
0.013162313 -0.27167609 1.087
-0.13208382 -0.26417431 1.0835
-0.12499801 -0.26446533 1.0847
-0.11486243 -0.26491222 1.08655
-0.10450192 -0.2648764 1.0863999
-0.094369277 -0.26503223 1.0863683
-0.085161328 -0.26534495 1.0853847
-0.075027227 -0.26492605 1.0843529
-0.065304205 -0.26443702 1.0823529
-0.054604046 -0.26657689 1.0817499
-0.044608675 -0.26593524 1.0808889
-0.035011195 -0.26568121 1.08125
-0.025746034 -0.26673147 1.0813334
-0.016177144 -0.26646611 1.0808572
-0.004687408 -0.26776379 1.080889
0.0055361912 -0.26600048 1.0814999
0.015075417 -0.26362485 1.0823125
0.022363495 -0.26180035 1.0836668
0.037268572 -0.26502097 1.087
0.040374286 -0.26398572 1.087
-0.13327348 -0.25670207 1.08
-0.12445714 -0.25714287 1.08
-0.1142998 -0.25672442 1.0812308
-0.10491429 -0.25817144 1.08
-0.096068576 -0.25776002 1.08
-0.068914287 -0.25817144 1.08
0.019542858 -0.25817144 1.08
0.022705238 -0.25900811 1.0835
-0.43169427 -0.23551667 1.087
-0.42788234 -0.2337767 1.0866667
-0.4182362 -0.23085809 1.087
-0.43258166 -0.22346355 1.087
-0.42548281 -0.22464664 1.0869999
-0.41720101 -0.22464666 1.0870001
-0.45343429 -0.21015333 1.087
-0.44411713 -0.21260026 1.087
-0.43543038 -0.21428035 1.0864545
-0.42504352 -0.21458964 1.0856363
-0.4149968 -0.21441129 1.0834
-0.40834287 -0.21188572 1.08
-0.46068093 -0.20187142 1.087
-0.45359087 -0.20472892 1.086647
-0.44454098 -0.2046943 1.0854999
-0.4346092 -0.20473847 1.0844284
-0.42432103 -0.20513444 1.0842607
-0.41440764 -0.20514248 1.0824
-0.40469617 -0.20449872 1.08
-0.39453065 -0.20292248 1.08
-0.38683406 -0.20280059 1.0809231
-0.37851429 -0.20057143 1.08
-0.48326796 -0.19434245 1.087
-0.47534361 -0.19450541 1.0863333
-0.46558839 -0.19572173 1.086375
-0.45461255 -0.19528547 1.0853331
-0.44481552 -0.19520649 1.0855713
-0.43427342 -0.19480236 1.0811428
-0.42469442 -0.19425921 1.0801667
-0.41460377 -0.19475776 1.08
-0.40478963 -0.19411948 1.08
-0.39188573 -0.1944 1.08
-0.38588578 -0.1944873 1.08048
-0.37785974 -0.19552207 1.08
-0.48293859 -0.18737811 1.087
-0.47558939 -0.18535952 1.0861428
-0.46548575 -0.18464592 1.0841248
-0.45510817 -0.18477386 1.0851784
-0.44473025 -0.18521702 1.084818
-0.43518439 -0.18458858 1.0827999
-0.42480001 -0.18514289 1.08
-0.41462862 -0.18480004 1.08
-0.4042286 -0.18426126 1.08
-0.39497146 -0.18445717 1.08
-0.3857857 -0.18517697 1.0802001
-0.37655067 -0.18374027 1.08
-0.36720002 -0.18205714 1.0800002
-0.47568637 -0.17476296 1.0857999
-0.46533397 -0.17446636 1.0844443
-0.45516542 -0.17482395 1.0861923
-0.44478622 -0.1747191 1.0849545
-0.43540189 -0.17482136 1.0835999
-0.42462856 -0.17580001 1.08
-0.41451433 -0.17588569 1.0799999
-0.40422854 -0.17588571 1.0799999
-0.39511657 -0.17594974 1.0804
-0.38571432 -0.17588574 1.0799999
-0.37542853 -0.17588571 1.0799999
-0.36495665 -0.17591077 1.0801538
-0.35679179 -0.17496637 1.0806668
-0.47362146 -0.16537929 1.087
-0.46471855 -0.16456559 1.0867599
-0.4548057 -0.16461386 1.0864545
-0.44484097 -0.16403432 1.0850908
-0.4346844 -0.16421822 1.0839198
-0.42463428 -0.1654419 1.0806667
-0.41451433 -0.16559997 1.0799999
-0.40422857 -0.16559999 1.0799999
-0.39496273 -0.16536273 1.0803809
-0.38571432 -0.16559999 1.0799999
-0.37542853 -0.16559999 1.0799999
-0.36514285 -0.16559999 1.0799999
-0.35596481 -0.16465057 1.08
-0.45170885 -0.1556308 1.087
-0.44503012 -0.15420678 1.0867
-0.43481421 -0.15492159 1.0844499
-0.42406905 -0.15504846 1.0813333
-0.41451439 -0.15531431 1.0799999
-0.40422854 -0.15531431 1.0799999
-0.3952311 -0.15525164 1.081
-0.38554293 -0.15531431 1.08
-0.37542859 -0.15531431 1.0799999
-0.36550063 -0.15522487 1.08
-0.35245717 -0.15325716 1.08
-0.44515234 -0.14493331 1.087
-0.43540373 -0.14582102 1.0859199
-0.42457476 -0.1451882 1.0826665
-0.41478848 -0.1453535 1.0811666
-0.40465081 -0.14517745 1.0811199
-0.39465734 -0.14505792 1.0814999
-0.38574624 -0.14552782 1.0822856
-0.37578633 -0.14476024 1.08
-0.36449322 -0.14405414 1.08
-0.35458884 -0.14467081 1.08
-0.34704003 -0.14358857 1.08
-0.44556648 -0.13810077 1.087
-0.43613106 -0.1391656 1.087
-0.4245131 -0.13582017 1.0862857
-0.41519046 -0.13529663 1.0844499
-0.40483195 -0.13494249 1.0815998
-0.39435893 -0.13480915 1.0818076
-0.38490611 -0.135414 1.0839999
-0.37475038 -0.13475683 1.0817143
-0.36500037 -0.13483964 1.0807999
-0.35495889 -0.1350154 1.0808333
-0.34457144 -0.13474286 1.0799999
-0.33634287 -0.13268572 1.08
-0.42237711 -0.12526381 1.087
-0.41528854 -0.12502705 1.0868421
-0.40549803 -0.12522534 1.0843477
-0.3947643 -0.12504338 1.0850999
-0.38478944 -0.12515752 1.0861
-0.37496328 -0.12498564 1.0845999
-0.36443049 -0.12491812 1.0839998
-0.35513914 -0.12491813 1.0839999
-0.34498286 -0.12460223 1.0812799
-0.33438572 -0.1244928 1.08032
-0.32502857 -0.12445714 1.08
-0.3160398 -0.12409939 1.08
-0.30660778 -0.12314807 1.08
-0.29554287 -0.12365714 1.08
-0.26228574 -0.12137143 1.08
-0.41202477 -0.11905239 1.087
-0.40451294 -0.11712708 1.08675
-0.39725575 -0.1174174 1.0862499
-0.37334451 -0.11604079 1.087
-0.36511767 -0.11480766 1.0860399
-0.35543483 -0.11468688 1.0848998
-0.34584758 -0.11459431 1.0839998
-0.3353762 -0.11454173 1.0835198
-0.3248643 -0.11447348 1.0828799
-0.31522089 -0.11423367 1.0824761
-0.3053143 -0.11434285 1.08
-0.29519999 -0.11417145 1.0799999
-0.28628573 -0.11142858 1.08
-0.27874288 -0.11005715 1.08
-0.2625187 -0.11325334 1.0803077
-0.25782859 -0.11348572 1.08
-0.35163587 -0.10800985 1.0870001
-0.34396693 -0.10508011 1.0861176
-0.33479887 -0.10436358 1.0849998
-0.32515296 -0.10463718 1.0850434
-0.31498119 -0.10430397 1.0843598
-0.30480871 -0.10388054 1.082909
-0.29496285 -0.10409557 1.0813333
-0.28511351 -0.10470495 1.0803809
-0.27497146 -0.10457144 1.08
-0.26445833 -0.10460348 1.0816363
-0.25553 -0.10343419 1.0821052
-0.24667166 -0.10238859 1.0809231
-0.23348573 -0.10285716 1.08
-0.22937144 -0.10285715 1.08
-0.33300158 -0.096967287 1.087
-0.3256222 -0.095799342 1.087
-0.31595924 -0.095011309 1.0864706
-0.30441913 -0.094850488 1.0861
-0.29446456 -0.094745107 1.0841427
-0.28455403 -0.0957167 1.0831577
-0.27523887 -0.095865145 1.0823998
-0.26507741 -0.095466502 1.0819129
-0.25499812 -0.09497907 1.0839999
-0.24473277 -0.09506382 1.0837998
-0.23475008 -0.095991954 1.0829229
-0.22604837 -0.095498912 1.08
-0.20262858 -0.091542862 1.0800002
-0.19542858 -0.091542862 1.08
-0.29351908 -0.087600231 1.086077
-0.28510424 -0.085611381 1.0855713
-0.27547368 -0.085859679 1.0839999
-0.26552501 -0.085752875 1.0848398
-0.25547871 -0.08584591 1.0860399
-0.24508055 -0.085826479 1.0857998
-0.23450729 -0.085742243 1.0847198
-0.22472799 -0.085556947 1.0824
-0.21511567 -0.084914468 1.0817143
-0.20520033 -0.08558248 1.0827198
-0.19516771 -0.085278183 1.0822608
-0.18569297 -0.082963057 1.0807999
-0.17588571 -0.082285725 1.08
-0.16560002 -0.082285725 1.08
-0.15874287 -0.081942856 1.0800002
-0.28400034 -0.079368256 1.087
-0.27418497 -0.078634098 1.0863999
-0.26571113 -0.079023175 1.087
-0.25476265 -0.078207538 1.087
-0.24520354 -0.07779076 1.087
-0.23499906 -0.077790752 1.087
-0.22476803 -0.07779707 1.08675
-0.21405354 -0.076111555 1.0862857
-0.20514271 -0.075738139 1.0865715
-0.195444 -0.075485528 1.0857998
-0.18518232 -0.075275324 1.0852499
-0.17475504 -0.075305156 1.0831999
-0.16434012 -0.075260058 1.0825598
-0.15498403 -0.075220577 1.082
-0.14586227 -0.072890542 1.0803077
-0.13426776 -0.074711844 1.0817142
-0.12462461 -0.075181879 1.0814399
-0.11582012 -0.07260064 1.0804445
-0.21118857 -0.069360957 1.087
-0.20238903 -0.067808099 1.087
-0.19537768 -0.06578467 1.087
-0.18550482 -0.066008754 1.087
-0.17458662 -0.066359155 1.0860525
-0.16443886 -0.065151989 1.0859199
-0.15467972 -0.064877786 1.0860454
-0.14513089 -0.065272257 1.0834347
-0.1354731 -0.065151282 1.0858799
-0.12520894 -0.065189369 1.08652
-0.11471166 -0.065100677 1.0850799
-0.10517335 -0.063596189 1.0805334
-0.09567976 -0.06275785 1.0802667
-0.086017475 -0.062322222 1.0816667
-0.077142864 -0.060685717 1.0800002
-0.16149715 -0.059008572 1.087
-0.15369834 -0.056800075 1.0870001
-0.14488262 -0.055882502 1.086625
-0.13747962 -0.056523997 1.087
-0.12396976 -0.057973333 1.087
-0.11429029 -0.055695809 1.087
-0.1045558 -0.054598175 1.0851666
-0.094428308 -0.054752573 1.0848399
-0.085047312 -0.055004127 1.085857
-0.0757939 -0.054212246 1.083409
-0.065216593 -0.052405171 1.082
-0.056571431 -0.051428571 1.08
-0.11077047 -0.048656192 1.087
-0.10455906 -0.048656192 1.087
-0.094896823 -0.048656192 1.0870001
-0.084889524 -0.048656192 1.087
-0.074925356 -0.046197493 1.087
-0.065193862 -0.045530334 1.08655
-0.054421779 -0.044937193 1.0836817
-0.044942226 -0.041853335 1.0806668
-0.034971431 -0.040114287 1.08
-0.025714288 -0.040114287 1.08
-0.0033428571 -0.041914284 1.08
-0.055284955 -0.29101029 1.0952001
-0.049103811 -0.29148856 1.097
-0.13059524 -0.28104094 1.097
-0.12419917 -0.28179753 1.095875
-0.11532805 -0.28154269 1.0953333
-0.10549095 -0.28200886 1.0967001
-0.094493769 -0.28251255 1.0958462
-0.084878363 -0.28346848 1.0953637
-0.075120002 -0.28378811 1.0955
-0.065729998 -0.28378811 1.0955
-0.055185955 -0.28528932 1.09325
-0.045011967 -0.28439555 1.0928125
-0.034425717 -0.28480592 1.0954001
-0.02533279 -0.28533635 1.095143
-0.015893454 -0.28636667 1.094375
-0.0052065477 -0.28538716 1.0936251
0.0055588889 -0.2852965 1.0946112
0.015637193 -0.28521115 1.09455
0.02293762 -0.28359452 1.09475
-0.13238144 -0.27519357 1.0945001
-0.1251474 -0.27532619 1.0915385
-0.11498656 -0.27490595 1.0911765
-0.10494381 -0.27431145 1.0910001
-0.094537906 -0.27426022 1.0908002
-0.085363373 -0.27621323 1.0900002
-0.076196201 -0.2767562 1.09
-0.064938635 -0.27832487 1.09
-0.055711113 -0.27890164 1.0900002
-0.042042859 -0.2787286 1.09
-0.034257144 -0.27820954 1.09
-0.025952382 -0.27820954 1.0900002
-0.0020761904 -0.27820954 1.09
0.0054500001 -0.27846909 1.09
0.01630846 -0.27601001 1.0902355
0.024506943 -0.27419484 1.0917144
-0.13648953 -0.26776955 1.0940001
0.019031748 -0.26817462 1.09
0.025702478 -0.26580533 1.0910668
0.033835921 -0.26284465 1.0908573
0.040485717 -0.26263812 1.09
-0.5627088 -0.2421758 1.097
-0.55581331 -0.24238476 1.097
-0.54118669 -0.24134 1.097
-0.53638071 -0.2421758 1.097
-0.43743905 -0.24261905 1.0910001
-0.5714848 -0.23298191 1.097
-0.5646714 -0.23460799 1.0963686
-0.55500603 -0.23474529 1.0965556
-0.54483461 -0.23514847 1.0964286
-0.53508484 -0.23413108 1.0948182
-0.52690822 -0.2322854 1.097
-0.51471937 -0.23263365 1.0970001
-0.50371778 -0.23243771 1.0964
-0.49419793 -0.23287205 1.0950716
-0.48485836 -0.2346113 1.0948399
-0.47528529 -0.23503809 1.0955
-0.46536916 -0.23415674 1.094
-0.45545375 -0.23522332 1.0917144
-0.44560382 -0.23578566 1.0906401
-0.43642741 -0.2354034 1.09
-0.42354286 -0.23253334 1.09
-0.56461912 -0.2252208 1.097
-0.55476856 -0.22462374 1.097
-0.54506916 -0.22450037 1.0964
-0.53486139 -0.22520673 1.0947499
-0.52531129 -0.22553331 1.0963333
-0.51550758 -0.22508639 1.0950588
-0.50539345 -0.22508268 1.0941499
-0.49510893 -0.2249953 1.0928235
-0.48475966 -0.22466558 1.0927826
-0.47467622 -0.22484761 1.0929999
-0.46573153 -0.22505143 1.094
-0.45538113 -0.22526543 1.0922222
-0.44534293 -0.22526667 1.09
-0.4371978 -0.22590552 1.0900002
-0.56484592 -0.2146465 1.0958334
-0.55525893 -0.21480688 1.094875
-0.54494828 -0.21440153 1.0925263
-0.53409034 -0.21509542 1.0922223
-0.5251202 -0.21567428 1.094
-0.51591665 -0.215848 1.094
-0.50617313 -0.21529067 1.0930476
-0.49517149 -0.21488571 1.09
-0.48536998 -0.21541265 1.0918462
-0.47438189 -0.2147797 1.0903335
-0.46506664 -0.21488574 1.09
-0.45592153 -0.21567665 1.09
-0.4464753 -0.2167732 1.0900002
-0.55526108 -0.20484474 1.0918001
-0.54500002 -0.20450477 1.09
-0.53390431 -0.20462982 1.0906668
-0.52492899 -0.20518172 1.0935999
-0.51565337 -0.204808 1.0916001
-0.5056262 -0.20453544 1.09016
-0.49517149 -0.20450479 1.09
-0.48486173 -0.20453542 1.0901601
-0.47458261 -0.20467779 1.0900002
-0.4652743 -0.20575047 1.09
-0.45987624 -0.20658097 1.09
-0.55516905 -0.19512819 1.0904001
-0.54500002 -0.19516189 1.09
-0.53376126 -0.19509673 1.0908
-0.52418101 -0.19486225 1.0915556
-0.51531506 -0.19474097 1.090889
-0.50589341 -0.19508256 1.0909525
-0.49517152 -0.19516192 1.09
-0.48852763 -0.19578476 1.09
-0.57544976 -0.18528669 1.0919092
-0.56576055 -0.18489085 1.0906668
-0.55628103 -0.18493584 1.092074
-0.54500002 -0.18581907 1.09
-0.53390431 -0.18558544 1.0906668
-0.5244962 -0.18482845 1.093091
-0.51621491 -0.18495014 1.0924762
-0.50563884 -0.18564604 1.0900002
-0.49517155 -0.18581901 1.09
-0.48686665 -0.18443492 1.0900002
-0.58366567 -0.17510071 1.094375
-0.57519656 -0.17484684 1.0947058
-0.56534129 -0.1749105 1.0932001
-0.55533522 -0.17504001 1.094
-0.54430473 -0.17566575 1.0901905
-0.53402758 -0.17538312 1.0905517
-0.52488106 -0.17496143 1.0935
-0.51538026 -0.17493388 1.0914118
-0.50555229 -0.17543806 1.09
-0.49517149 -0.17543809 1.09
-0.48582861 -0.17543809 1.09
-0.58346677 -0.16566288 1.094
-0.57478523 -0.1656397 1.095
-0.5651778 -0.16579661 1.0949
-0.5553351 -0.16566285 1.0939999
-0.54530376 -0.16532224 1.0936364
-0.53355664 -0.16538778 1.0907145
-0.52377909 -0.1652381 1.0912001
-0.5148952 -0.16505717 1.09
-0.5060057 -0.1652008 1.0924287
-0.49493673 -0.16544934 1.0907274
-0.48496354 -0.16488415 1.0900002
-0.47814664 -0.16339619 1.09
-0.45157143 -0.16920952 1.09
-0.58490169 -0.15588947 1.097
-0.57530296 -0.15570371 1.0952272
-0.56511104 -0.15523487 1.0955
-0.55447185 -0.15575722 1.0956957
-0.5450266 -0.15515238 1.0953637
-0.53426272 -0.15517387 1.0935199
-0.52507657 -0.15510458 1.0944285
-0.51548225 -0.1550097 1.0930455
-0.50600773 -0.1553642 1.0936799
-0.4951905 -0.15483113 1.0923333
-0.48509279 -0.15503673 1.0925599
-0.47420046 -0.15499537 1.090348
-0.46506658 -0.15467618 1.09
-0.4572809 -0.15389763 1.09
-0.60073811 -0.14417714 1.097
-0.5971179 -0.14193659 1.0942
-0.58471853 -0.14800794 1.097
-0.57545429 -0.14725696 1.0966002
-0.56521618 -0.14731143 1.0970001
-0.55495852 -0.14512695 1.0970001
-0.54523039 -0.14534284 1.0957727
-0.53479081 -0.14490326 1.0945998
-0.52505273 -0.1450939 1.09604
-0.5151251 -0.14486106 1.0963479
-0.50507104 -0.14519735 1.0946819
-0.4949047 -0.14482474 1.0939999
-0.48457193 -0.14496659 1.0929091
-0.47412446 -0.14404811 1.090174
-0.46506664 -0.14429523 1.09
-0.45572376 -0.14429523 1.09
-0.59464777 -0.13746925 1.0935
-0.55208206 -0.13716231 1.0970001
-0.544321 -0.13790858 1.097
-0.53596282 -0.13790858 1.0970001
-0.52422935 -0.13654236 1.0970001
-0.51617378 -0.1358805 1.097
-0.50462002 -0.13707277 1.097
-0.49470633 -0.13478781 1.0948181
-0.48460615 -0.1340186 1.0924761
-0.47440955 -0.13495237 1.09
-0.46506661 -0.13495238 1.09
-0.45572382 -0.13495241 1.09
-0.44460142 -0.13391429 1.0900002
-0.43483976 -0.1344028 1.09
-0.42873335 -0.13599049 1.09
-0.4937925 -0.12546639 1.0970001
-0.48521572 -0.12430032 1.09525
-0.47468799 -0.12500399 1.0938333
-0.46575984 -0.1255907 1.0934799
-0.45493287 -0.12580727 1.09
-0.44516537 -0.12546696 1.0901541
-0.43478894 -0.12578255 1.0900002
-0.42703465 -0.12598702 1.0900002
-0.4183524 -0.12249523 1.09
-0.49208286 -0.11701334 1.097
-0.48531464 -0.11726841 1.0967274
-0.47492078 -0.11582632 1.0968237
-0.46475324 -0.11556232 1.0966088
-0.45478162 -0.1157796 1.0952274
-0.44471973 -0.11582507 1.094
-0.43461016 -0.11524918 1.0929091
-0.42428792 -0.11551711 1.0901741
-0.41469434 -0.11453652 1.09
-0.40520319 -0.11246032 1.09
-0.39435062 -0.11431828 1.0917144
-0.38487166 -0.11547969 1.0915653
-0.37734765 -0.11419048 1.09
-0.46387428 -0.10969999 1.097
-0.45342675 -0.10552096 1.097
-0.44446093 -0.10537355 1.0955
-0.43480864 -0.10531045 1.0948399
-0.42486459 -0.1051724 1.0934
-0.41499314 -0.10504431 1.09208
-0.40508062 -0.10490306 1.0906001
-0.39543629 -0.10510416 1.0926669
-0.38446289 -0.10523237 1.0939999
-0.37440082 -0.10503544 1.092
-0.36463881 -0.10492152 1.0908
-0.35576439 -0.10432483 1.0909413
-0.348454 -0.10207938 1.0900002
-0.45029238 -0.09925238 1.097
-0.44444171 -0.098834477 1.097
-0.4351835 -0.097484328 1.0970001
-0.42490378 -0.094953783 1.0956501
-0.41545728 -0.095107004 1.0942608
-0.40541327 -0.094624601 1.0938333
-0.39550897 -0.095063366 1.0950769
-0.38458869 -0.094843157 1.09436
-0.37508196 -0.094674058 1.0947143
-0.36557695 -0.094997339 1.094125
-0.35528949 -0.094813317 1.0939999
-0.34509495 -0.09443152 1.0929091
-0.33568984 -0.093155652 1.0902858
-0.32367811 -0.091767617 1.09
-0.31194761 -0.092650004 1.09
-0.30727619 -0.090314284 1.09
-0.4231286 -0.088804767 1.097
-0.41454902 -0.087007888 1.0959091
-0.40481192 -0.087638564 1.0955
-0.39398584 -0.086920425 1.0966668
-0.38578966 -0.084989101 1.097
-0.37486061 -0.085565992 1.097
-0.36518162 -0.084370516 1.0962858
-0.355358 -0.084623665 1.0947499
-0.34547549 -0.084539212 1.09592
-0.33500227 -0.084166795 1.0946087
-0.32500592 -0.084532991 1.0921818
-0.31518742 -0.084254555 1.0922401
-0.30432495 -0.084564567 1.0915653
-0.29526395 -0.082899317 1.0900002
-0.38865143 -0.078357145 1.097
-0.36367211 -0.076837488 1.0970001
-0.35493413 -0.076457575 1.0970001
-0.34596545 -0.076416872 1.0970001
-0.33527777 -0.075201444 1.0967001
-0.32518724 -0.074943081 1.0963334
-0.31474015 -0.075037152 1.0943
-0.30506119 -0.075717159 1.0936
-0.29513296 -0.075695582 1.0929091
-0.28536299 -0.07474561 1.0917778
-0.27501553 -0.073909931 1.0908573
-0.26458329 -0.074456073 1.090889
-0.25485235 -0.07318572 1.0900002
-0.2453365 -0.073012702 1.09
-0.23564762 -0.072949789 1.0900002
-0.22557813 -0.073229536 1.0906668
-0.21800001 -0.072666667 1.09
-0.33490425 -0.069070369 1.097
-0.32581648 -0.067760274 1.0970001
-0.31447336 -0.068230987 1.0970001
-0.30467865 -0.066734165 1.097
-0.29557127 -0.065797031 1.09664
-0.28480941 -0.065916047 1.0957501
-0.27493086 -0.065433778 1.0953637
-0.26503748 -0.06620083 1.0958261
-0.25507861 -0.06601923 1.0956364
-0.24521044 -0.065361656 1.0940001
-0.23475362 -0.065827973 1.0933703
-0.22517483 -0.065673716 1.0946001
-0.2156402 -0.06518203 1.0924348
-0.2058932 -0.06455832 1.0902354
-0.1972381 -0.061247624 1.09
-0.18478096 -0.061247624 1.09
-0.17613016 -0.061593652 1.0900002
-0.28208572 -0.058506668 1.097
-0.27425003 -0.057984289 1.0970001
-0.26641428 -0.057984285 1.097
-0.25492191 -0.059551429 1.097
-0.24482256 -0.059203178 1.0970001
-0.23507142 -0.058506664 1.097
-0.22436258 -0.057200707 1.097
-0.21503755 -0.056366604 1.0960625
-0.20534168 -0.056281861 1.09445
-0.19478151 -0.055686869 1.0924737
-0.18478145 -0.055785105 1.09372
-0.17486089 -0.055038691 1.0944285
-0.16544883 -0.054924291 1.0919546
-0.15562248 -0.052149713 1.0908002
-0.14429526 -0.050866671 1.09
-0.13442993 -0.054155927 1.0905716
-0.12622018 -0.053553499 1.09
-0.11772 -0.051697146 1.09
-0.1619381 -0.049103811 1.097
-0.15541753 -0.049023241 1.0952002
-0.14378367 -0.048322998 1.0928572
-0.13451801 -0.047966201 1.0949
-0.12446572 -0.04749535 1.0921112
-0.11576453 -0.046120118 1.091375
-0.10417803 -0.044850845 1.0913848
-0.094526626 -0.044138055 1.0917728
-0.085260473 -0.043665003 1.09175
-0.07693439 -0.041639153 1.09
-0.065400004 -0.040485717 1.09
-0.057095241 -0.040485717 1.09
-0.032712381 -0.30214986 1.108
-0.024543812 -0.30310488 1.1067142
-0.014773333 -0.30285335 1.108
-0.0052761906 -0.30200917 1.108
0.0052761906 -0.30179811 1.1079999
0.014773333 -0.30179811 1.108
0.022160001 -0.30074286 1.108
-0.14245714 -0.29019049 1.108
-0.13451537 -0.29297933 1.1071429
-0.12554944 -0.29342124 1.1062498
-0.11463611 -0.29488176 1.1064209
-0.10517929 -0.29450399 1.1043748
-0.095743857 -0.29460475 1.1047499
-0.085493438 -0.29460439 1.1053684
-0.074311361 -0.29359841 1.1061538
-0.064718276 -0.29465476 1.1049373
-0.055297036 -0.29659632 1.1047779
-0.044757199 -0.29471359 1.1042776
-0.034398053 -0.29477397 1.1035908
-0.024993651 -0.29583338 1.1036665
-0.015757145 -0.29623815 1.1029998
-0.0052537145 -0.29558489 1.1036999
0.0048821848 -0.29478621 1.1033528
0.015633669 -0.2953423 1.1031176
0.02498297 -0.29524812 1.1064705
-0.13554044 -0.28602353 1.103222
-0.12536736 -0.28749883 1.1028183
-0.11429429 -0.28730863 1.101
-0.10485715 -0.2873086 1.101
-0.096318774 -0.28775799 1.1010001
-0.084934287 -0.28835717 1.1010001
-0.074448578 -0.28835717 1.1010001
-0.065011427 -0.28835717 1.1010001
0.026309524 -0.28940475 1.105
-0.13759586 -0.27763841 1.101
-0.59192008 -0.25593457 1.1059
-0.59290296 -0.24502926 1.1041999
-0.5847978 -0.24405326 1.1014705
-0.57591653 -0.24442545 1.1014799
-0.56622857 -0.24611467 1.101
-0.55379546 -0.24626447 1.101
-0.54486394 -0.24602103 1.101
-0.53389978 -0.24566497 1.1023332
-0.52539521 -0.24466431 1.1033331
-0.51456559 -0.24426453 1.1011739
-0.50465548 -0.24446158 1.1016399
-0.59378314 -0.23662119 1.103
-0.58465362 -0.23517959 1.101
-0.57701391 -0.23532939 1.101
-0.56937432 -0.23802572 1.1010001
-0.53267431 -0.23802572 1.1010001
-0.52468908 -0.23608989 1.101
-0.51353788 -0.23697713 1.101
-0.50462502 -0.23723927 1.101
-0.49807146 -0.23802572 1.1010001
-0.58326787 -0.22727787 1.101
-0.57665902 -0.2247806 1.101
-0.56937432 -0.22229716 1.1010001
-0.52952862 -0.22963716 1.1010001
-0.57252002 -0.21915144 1.1010001
-0.56937432 -0.21915144 1.1010001
-0.59473056 -0.14565614 1.101
-0.58552235 -0.14323488 1.101
-0.57566583 -0.14260574 1.101
-0.56594259 -0.14346366 1.101
-0.60090953 -0.13154761 1.105
-0.59328568 -0.13426517 1.1013999
-0.58543062 -0.13553259 1.1031998
-0.57593679 -0.13568521 1.1022172
-0.56517988 -0.13526575 1.1009998
-0.55548066 -0.13382395 1.101
-0.54420865 -0.13316858 1.1010001
-0.53436834 -0.13450906 1.1012499
-0.52683234 -0.13197023 1.1010001
-0.5135141 -0.13297793 1.101
-0.50604063 -0.13295887 1.101
-0.60254097 -0.1297943 1.108
-0.59392589 -0.12535116 1.1044346
-0.58447516 -0.12490691 1.1046816
-0.57572705 -0.12524898 1.1051426
-0.56498206 -0.1251463 1.1017271
-0.5549351 -0.12483257 1.1014799
-0.54420853 -0.12477998 1.1009998
-0.53502452 -0.12486907 1.1033332
-0.5253818 -0.12499984 1.1037824
-0.5145703 -0.12508878 1.1030738
-0.50419343 -0.12489294 1.1019999
-0.49765202 -0.12310228 1.1010001
-0.59382647 -0.11566022 1.1069285
-0.58514875 -0.11491858 1.1070398
-0.57530469 -0.11484911 1.1063498
-0.56513369 -0.11449828 1.1046665
-0.55469161 -0.11483834 1.1046921
-0.54513323 -0.11470952 1.1049998
-0.53581142 -0.11466078 1.1067141
-0.52501762 -0.11509304 1.1059544
-0.51461416 -0.11470955 1.1049997
-0.50450456 -0.11456076 1.1035999
-0.49563858 -0.11342504 1.1021763
-0.48531389 -0.11237553 1.1012857
-0.47590169 -0.1106992 1.1010001
-0.46381813 -0.11010002 1.1010001
-0.5824914 -0.10657905 1.108
-0.57484096 -0.10631525 1.1079999
-0.56449735 -0.10433815 1.1066498
-0.55460465 -0.10523809 1.1049998
-0.54513323 -0.10523809 1.1049998
-0.53534144 -0.10468845 1.1071427
-0.52464515 -0.10456451 1.1079999
-0.51429367 -0.10433075 1.1055453
-0.50552589 -0.10445012 1.1054735
-0.49567136 -0.10523809 1.1049998
-0.48514757 -0.10523809 1.1049998
-0.4744828 -0.10498931 1.1041577
-0.46377695 -0.10504219 1.101
-0.56244195 -0.098137155 1.108
-0.55417931 -0.097980246 1.10625
-0.54492319 -0.097958103 1.1059999
-0.53815013 -0.098036073 1.1068749
-0.52128762 -0.098137148 1.108
-0.51495618 -0.098137148 1.108
-0.50460792 -0.09600728 1.1077856
-0.49545753 -0.095926076 1.1068749
-0.48512587 -0.096107528 1.1057824
-0.47462371 -0.095766656 1.1049997
-0.46464643 -0.095658854 1.1037998
-0.45547 -0.09510038 1.1021999
-0.44595629 -0.094225384 1.1014705
-0.43553847 -0.092560269 1.101
-0.49400222 -0.08909224 1.108
-0.48365813 -0.087115161 1.1077856
-0.47463799 -0.086616412 1.1067646
-0.46536204 -0.085078187 1.1066362
-0.45547673 -0.085546337 1.105391
-0.4453325 -0.085067473 1.1049998
-0.43491787 -0.085087709 1.1041665
-0.42496753 -0.084299006 1.1024117
-0.41523632 -0.082485251 1.1033334
-0.40537685 -0.083035253 1.1036667
-0.39698917 -0.083885722 1.101
-0.38272858 -0.080740005 1.1010001
-0.37643719 -0.081264287 1.1010001
-0.46184254 -0.07843937 1.108
-0.45463178 -0.076856516 1.1079999
-0.44471312 -0.075966708 1.1071427
-0.43472922 -0.075072162 1.1072856
-0.42536396 -0.074548803 1.1067727
-0.41556713 -0.074846156 1.1069199
-0.40542379 -0.075278059 1.1062272
-0.3952834 -0.074477069 1.1059523
-0.3854214 -0.074812666 1.1049999
-0.37500495 -0.074257068 1.1031997
-0.3653771 -0.072105817 1.1037
-0.35559562 -0.071747817 1.1014
-0.34591207 -0.07165239 1.101
-0.42435652 -0.067987487 1.108
-0.41501009 -0.066329241 1.1079999
-0.40668878 -0.06584686 1.1079999
-0.39571428 -0.068590477 1.108
-0.38365445 -0.067685992 1.108
-0.37430802 -0.066630743 1.1079999
-0.36452013 -0.065700144 1.1075714
-0.35531774 -0.064487241 1.1067727
-0.3451108 -0.065113232 1.1047777
-0.3356398 -0.063344963 1.1024666
-0.32442799 -0.06375315 1.101
-0.31562001 -0.063438587 1.101
-0.30775571 -0.062390003 1.1010001
-0.28835717 -0.061865721 1.1010001
-0.26668668 -0.062564768 1.1010001
-0.33164859 -0.058957621 1.1055
-0.32480291 -0.058693808 1.1055
-0.31574869 -0.058443576 1.10575
-0.30494043 -0.057447433 1.1048666
-0.29481131 -0.055756383 1.1047599
-0.28549492 -0.054939285 1.1041249
-0.27565712 -0.053237777 1.1033334
-0.26501694 -0.055199362 1.103619
-0.25512949 -0.054803818 1.1033683
-0.15501119 -0.044054888 1.1056314
-0.14568354 -0.043933403 1.1036667
-0.12547436 -0.042737953 1.1028461
-0.11350787 -0.041680712 1.101
-0.10632514 -0.041733146 1.1010001
-0.13534573 -0.31012291 1.1190002
-0.12255716 -0.31012291 1.1190002
-0.11722858 -0.31012288 1.1190001
-0.10657143 -0.31012288 1.1190001
-0.093782857 -0.31012288 1.1190001
-0.08525715 -0.31012288 1.1190001
-0.065008581 -0.31012288 1.1190001
-0.05435143 -0.31012288 1.1190001
-0.044760004 -0.31012288 1.1190001
-0.038365714 -0.31012288 1.1190001
-0.026642859 -0.31012291 1.1190002
0.022380002 -0.31012291 1.1190002
-0.14402382 -0.30401224 1.117182
-0.13489299 -0.30444989 1.1171052
-0.12506777 -0.30535349 1.1165385
-0.11547361 -0.30469692 1.1152859
-0.10543981 -0.30463874 1.1150715
-0.094589025 -0.30502513 1.1159334
-0.084920876 -0.30465487 1.1145834
-0.075485393 -0.30513367 1.1163334
-0.064749084 -0.30464205 1.1145335
-0.055186994 -0.30458701 1.1143334
-0.045617145 -0.30445933 1.1138668
-0.035503961 -0.30598474 1.114077
-0.023652067 -0.30606478 1.1120002
-0.014826667 -0.30606478 1.1120001
-0.0044063949 -0.30667853 1.1164286
0.0052982867 -0.30661526 1.1140001
0.014856352 -0.30595511 1.1141667
0.025316056 -0.30559474 1.1141429
-0.14349993 -0.2965354 1.113091
-0.1357094 -0.2975924 1.1120001
-0.1242616 -0.2990045 1.1120001
-0.1196724 -0.29971051 1.1120001
-0.081546672 -0.29971051 1.1120001
-0.076100141 -0.29910535 1.1120001
-0.068838097 -0.29971051 1.1120001
-0.59730291 -0.1154362 1.1120001
-0.57605106 -0.10143775 1.112375
-0.5305829 -0.10060953 1.1120001
-0.56476134 -0.093594745 1.1130589
-0.55497497 -0.092393346 1.1132858
-0.54538792 -0.092251249 1.1134002
-0.5347982 -0.094070472 1.1134284
-0.52570713 -0.093534417 1.1142857
-0.51579738 -0.09339758 1.113706
-0.50737154 -0.091903962 1.1128572
-0.55551213 -0.085043304 1.1169046
-0.54418325 -0.085116141 1.1165237
-0.53507525 -0.085408017 1.1185294
-0.52539724 -0.085257143 1.1190001
-0.51460159 -0.084917463 1.1176667
-0.50429338 -0.084930956 1.1147499
-0.49461284 -0.084400512 1.1124003
-0.48610291 -0.082757019 1.1120001
-0.47657147 -0.081546672 1.1120001
-0.56511927 -0.077990912 1.1190002
-0.55497074 -0.077530712 1.1190002
-0.54551256 -0.077131063 1.1190002
-0.53711998 -0.079928577 1.1190001
-0.52433145 -0.079218104 1.1190001
-0.51527292 -0.078330003 1.1190002
-0.50485796 -0.077990927 1.1190002
-0.49553838 -0.076415673 1.117889
-0.48478848 -0.07551343 1.1168261
-0.47479072 -0.075595096 1.1150476
-0.46585587 -0.074714728 1.1142354
-0.45591989 -0.072197355 1.113
-0.44480005 -0.070956193 1.1120001
-0.4024381 -0.070956193 1.1120001
-0.48383433 -0.069271438 1.1190001
-0.47459814 -0.068560958 1.1190001
-0.46571717 -0.068205722 1.1190002
-0.39477313 -0.064237505 1.1127143
-0.38554239 -0.062882327 1.1144376
-0.37515718 -0.061465483 1.1127501
-0.36748958 -0.061424769 1.1120001
