# .PCD v0.7 - Point Cloud Data file format
VERSION 0.7
FIELDS x y z normal_x normal_y normal_z curvature
SIZE 4 4 4 4 4 4 4
TYPE F F F F F F F
COUNT 1 1 1 1 1 1 1
WIDTH 602
HEIGHT 1
VIEWPOINT 0 0 0 1 0 0 0
POINTS 602
DATA ascii
0.44197306 0.39104334 0.35533229 0.57024741 -0.39116764 0.416888 0.80745888
0.28948712 0.40165338 0.35138664 0.0047979653 -0.19042201 0.33660597 0.38676497
0.29852724 0.39788964 0.34571248 0.014287233 -0.19278678 0.3460426 0.39637905
0.30512142 0.40348244 0.34960353 0.030482918 -0.19135267 0.35796112 0.40703958
0.31173062 0.40760675 0.35960594 0.058894113 -0.20013537 0.38223544 0.43546137
0.34912616 0.40243879 0.35023126 0.16432811 -0.22290693 0.44092503 0.52067852
0.35566404 0.4051407 0.35202762 0.18878803 -0.22275735 0.44780079 0.53459078
0.3653065 0.40490994 0.35486111 0.24045119 -0.23234129 0.46137029 0.56979102
0.37511763 0.4050028 0.35705483 0.27471152 -0.24944127 0.47040069 0.59913617
0.3783538 0.38782984 0.33794591 0.31482089 -0.28490475 0.48072273 0.64138699
0.38809267 0.39406604 0.34534124 0.35950375 -0.27887088 0.47627318 0.65867144
0.39399776 0.38927075 0.33889025 0.4059087 -0.30452222 0.47431439 0.69460046
0.40655878 0.39603972 0.34680209 0.45442134 -0.29377174 0.45920533 0.70969725
0.41665092 0.39661506 0.35025191 0.48625731 -0.31972039 0.45282409 0.73737168
0.29890218 0.40919197 0.34436974 0.008033514 -0.18010515 0.33304188 0.37870741
0.3083626 0.40995196 0.3495551 0.032919705 -0.186187 0.35683626 0.40383342
0.31242913 0.41157985 0.35076931 0.04360646 -0.18689004 0.36497819 0.41235724
0.3581306 0.41323692 0.35115299 0.18804397 -0.20691985 0.44122589 0.52235681
0.36490741 0.41510952 0.35293329 0.21966055 -0.20357585 0.4468585 0.53793716
0.36900628 0.40385896 0.34378597 0.24930589 -0.22148617 0.45855001 0.56699002
0.37184924 0.39483845 0.33542344 0.26748404 -0.24191244 0.46750453 0.59044886
0.38753214 0.40715495 0.34866065 0.34188423 -0.23375773 0.46471387 0.62248415
0.39007014 0.39854211 0.34343922 0.37228787 -0.26032037 0.46971807 0.6534524
0.410669 0.41067156 0.35954845 0.43548355 -0.272728 0.45979828 0.68952227
0.30668026 0.41895834 0.34754157 0.02341786 -0.17613678 0.3434059 0.38665253
0.31590572 0.41772661 0.34875932 0.045109272 -0.1774911 0.36057848 0.40441906
0.32114133 0.42674994 0.35811892 0.06462945 -0.17997101 0.37503281 0.42097047
0.35312736 0.41058725 0.33739191 0.15867333 -0.17959023 0.41970107 0.48329997
0.37255901 0.42369866 0.35256398 0.25498259 -0.176889 0.4398787 0.53832996
0.37902036 0.4126167 0.34611633 0.28813499 -0.21358648 0.45848376 0.58210677
0.39127332 0.42117697 0.35780543 0.33303291 -0.20813406 0.45569572 0.60157233
0.31877086 0.3988499 0.34395796 0.053249717 -0.19967015 0.37837562 0.43112853
0.3118965 0.42543608 0.34712967 0.033216953 -0.1664459 0.34489235 0.38439348
0.3217847 0.43271351 0.35500148 0.060074463 -0.17191868 0.36741 0.41006717
0.35766757 0.43460965 0.35228047 0.16995862 -0.15468912 0.40988842 0.46991825
0.36502454 0.4321633 0.35227337 0.19729683 -0.17105296 0.42666349 0.50022686
0.36881599 0.41941154 0.34449953 0.23555525 -0.17652535 0.43711916 0.52699208
0.31657377 0.416581 0.33886686 0.026967108 -0.16786182 0.34091651 0.38095784
0.32024181 0.43224791 0.34870738 0.05032289 -0.16079088 0.35381198 0.39187881
0.3349866 0.44773009 0.35710722 0.087263972 -0.15054892 0.37071708 0.40952548
0.34492645 0.44407469 0.35358021 0.11362244 -0.15145172 0.38527247 0.42928144
0.35330355 0.44205645 0.35493022 0.14353153 -0.15316623 0.39950269 0.45129105
0.31878042 0.45103067 0.35125041 0.043506801 -0.14082846 0.33482286 0.36583036
0.32405031 0.44337696 0.34868041 0.056868017 -0.14559311 0.34805325 0.38153949
0.33421519 0.4479616 0.35281637 0.082753211 -0.14229023 0.36252743 0.39814663
0.34082884 0.45073056 0.35493478 0.097444206 -0.14741264 0.37436175 0.41397172
0.029281486 0.0092824101 0.36575112 -0.031616598 -0.026394576 -0.00039801979 0.041187879
0.035779215 0.0088844225 0.36555263 -0.013518512 -0.01076591 0.00087581854 0.017303815
0.041947 0.0087265996 0.36489993 -0.007879138 -0.0061484575 -0.0016673156 0.010132339
0.0061260359 0.018707417 0.36490563 0.80435222 -0.40034652 -0.0090942737 0.89852244
0.014729814 0.016096011 0.36497089 0.77458787 -0.56661582 -0.0080260541 0.95974177
0.024881903 0.012637137 0.36521816 0.70327812 -0.6979748 -0.014597759 0.99095005
0.034934308 0.010844516 0.364407 -0.035260111 -0.029707462 -0.0022859839 0.046163127
0.044914447 0.01507638 0.36470041 0.66096383 -0.74708343 -0.011487527 0.99756646
0.05111545 0.018856412 0.36543065 0.66829515 -0.73943365 -0.013272647 0.99677312
0.33670264 0.01676926 0.36472225 0.59936213 0.0070641935 -0.005626292 0.59943014
0.34505931 0.015262685 0.36515528 0.59213865 0.012228042 -0.010357835 0.59235543
0.35436586 0.018075747 0.36489338 0.62694836 -0.014617741 -0.0061446284 0.62714887
0.36153847 0.019711358 0.36537632 0.66738486 -0.052818596 -0.0085133146 0.6695258
-0.00057582103 0.023602277 0.36503112 0.80323499 -0.36321956 -0.011002643 0.88160986
0.0022242994 0.024361774 0.36477387 0.80390096 -0.41735169 -0.013000644 0.90587425
0.048496332 0.022252329 0.36498329 0.69333279 -0.71065438 -0.016427487 0.9929803
0.054424331 0.026016099 0.36501911 0.69332522 -0.71070957 -0.014849485 0.99298966
0.060469478 0.029713705 0.36564803 0.68323374 -0.72275376 -0.016865619 0.99471897
0.32753399 0.026824119 0.36503294 0.653023 -0.038259953 -0.0050886618 0.65416265
0.33295053 0.02323306 0.36495185 0.64071596 -0.026684761 -0.0050611496 0.64129138
0.34054849 0.020223588 0.36810219 0.62680352 -0.014518529 -0.010726606 0.62706339
0.35794744 0.020519102 0.36600798 0.65064859 -0.03596285 -0.0071631693 0.65168107
0.36536214 0.022640111 0.36496675 0.71422398 -0.11025795 -0.0055636 0.72270578
0.37502107 0.026327528 0.36493492 0.76869571 -0.21117975 -0.005737518 0.79719692
0.38108906 0.028078884 0.36557698 0.79166347 -0.2846792 -0.0083881291 0.84133446
-6.8753958e-05 0.030656397 0.3634311 0.80362076 -0.42334896 -0.012626191 0.9083997
0.0023302359 0.03507974 0.36508757 0.80070853 -0.45702422 -0.008300445 0.92199469
0.057589747 0.033692997 0.36523804 0.69980931 -0.70252991 -0.013909435 0.99170303
0.062503576 0.035392676 0.3646901 0.69896352 -0.70359671 -0.014822813 0.99187601
0.31819427 0.037403349 0.36517709 0.66336548 -0.048618674 -0.0071509928 0.66518319
0.32351327 0.033554651 0.3651239 0.66552877 -0.050863475 -0.0064408965 0.66750067
0.37772989 0.035555378 0.36471039 0.78774714 -0.26882374 -0.0046833484 0.83236635
0.38070941 0.034251306 0.36490768 0.79436219 -0.29713693 -0.0071321903 0.8481465
0.0043015657 0.044871148 0.36517122 0.7934497 -0.50056911 -0.0070011877 0.93817955
0.059337657 0.040724725 0.36803412 0.71262443 -0.68506557 -0.018133435 0.98867452
0.064388111 0.045377105 0.36479688 0.70519137 -0.69541717 -0.014893121 0.99051589
0.31525442 0.045221265 0.36492851 0.6638391 -0.049116939 -0.009136606 0.66571635
0.32085538 0.044506829 0.36580896 0.66862941 -0.054138482 -0.0086814389 0.67087376
0.37648678 0.045112107 0.36494634 0.78845686 -0.27172875 0.00060880138 0.83396709
0.38021979 0.041182652 0.36943424 0.78740662 -0.26753101 -0.0071236105 0.83164459
0.0065663303 0.055051263 0.36506003 0.78825486 -0.52255291 -0.0053628972 0.94574624
0.010518223 0.055578511 0.36551973 0.78577101 -0.53172266 -0.0041727033 0.94877946
0.066199996 0.05420066 0.36512104 0.71173894 -0.68637836 -0.016423821 0.98891723
0.071471453 0.057122864 0.36536664 0.71029919 -0.68832111 -0.018328022 0.9892658
0.30914244 0.05858209 0.36459032 0.68947893 -0.077811807 -0.000512789 0.693856
0.31286982 0.054960821 0.36560369 0.68776041 -0.075856298 0.0037743216 0.69194132
0.36972296 0.05802092 0.36383381 0.79236078 -0.28970057 0.014030531 0.84377658
0.3740806 0.055059798 0.36514133 0.79414606 -0.29767606 0.011337839 0.84817898
0.0085563632 0.064315781 0.3650212 0.78256857 -0.54265255 -0.0040558744 0.95231396
0.011623186 0.067000091 0.36512133 0.7787745 -0.55454558 -0.0088432031 0.9560799
0.068479262 0.063433811 0.36504394 0.71427226 -0.68263149 -0.020119123 0.98821831
0.073304638 0.066137783 0.36490008 0.71234769 -0.68546224 -0.018000601 0.98874754
0.30648139 0.065872632 0.36487547 0.69986665 -0.091011018 0.0064987657 0.70578933
0.31168255 0.06448184 0.3646616 0.70608556 -0.099277049 0.0074743247 0.71306986
0.36878839 0.06616357 0.36440402 0.79547137 -0.3081969 0.024951756 0.85345334
0.37219077 0.064416423 0.36456335 0.79573035 -0.30873033 0.022290369 0.85381383
0.013534584 0.075154573 0.36520186 0.77330887 -0.57011831 -0.0071591884 0.96077716
0.076392591 0.074522644 0.36520201 0.70638049 -0.6936065 -0.020449858 0.99019271
0.081649177 0.077047244 0.36478648 0.70756078 -0.69187641 -0.022900024 0.98987859
0.29865482 0.078414142 0.36476922 0.70299697 -0.096318752 0.02346969 0.70995271
0.30345532 0.074364819 0.36490253 0.70275581 -0.095246196 0.014602373 0.70933127
0.3666411 0.075458035 0.36491284 0.79462296 -0.3098368 0.039418351 0.85380226
0.37106293 0.071522973 0.36499733 0.79641891 -0.31753641 0.033774078 0.85805196
0.018491542 0.086191013 0.36390057 0.76349527 -0.59459937 -0.010287646 0.96777028
0.021003297 0.087552011 0.36526412 0.76189506 -0.59829938 -0.0080571389 0.96876782
0.078970894 0.081529036 0.36548591 0.70823163 -0.69115198 -0.018934574 0.98976845
0.084649801 0.085278325 0.36494583 0.70525503 -0.69500089 -0.022874784 0.99042118
0.091295183 0.089053392 0.36447677 0.69246799 -0.71172452 -0.016360521 0.99314219
0.28942084 0.089138672 0.3639057 0.70249248 -0.09553197 0.022253526 0.70930761
0.29494765 0.085292153 0.36508816 0.70544863 -0.099990696 0.027106594 0.7130152
0.30116835 0.082977995 0.3648878 0.71015924 -0.10716617 0.032664869 0.71894211
0.35906625 0.0877809 0.36640519 0.78945434 -0.29460114 0.058857538 0.84468466
0.36450845 0.086740538 0.3638978 0.79290676 -0.31722504 0.064316392 0.85642833
0.01946486 0.091018863 0.36490813 0.7612344 -0.5997842 -0.0088416059 0.96917337
0.023417106 0.095680162 0.36490506 0.75542724 -0.61232412 -0.011558626 0.97249407
0.087884821 0.092386268 0.36498898 0.69430655 -0.70940197 -0.017686682 0.99278677
0.093939394 0.095415667 0.36472735 0.67877644 -0.72784519 -0.017367709 0.99538827
0.10021308 0.098990977 0.36326084 0.67066848 -0.73669308 -0.020076256 0.99645168
0.28252435 0.095540985 0.36515096 0.69321859 -0.083701253 0.022841357 0.698627
0.2923277 0.09209577 0.36478189 0.71179557 -0.10938275 0.031991072 0.72086126
0.3545664 0.096849881 0.36385664 0.78564835 -0.29870775 0.087144457 0.84502298
0.36128744 0.092969045 0.36423847 0.78999746 -0.31396514 0.079056881 0.85376817
0.027858563 0.10477131 0.36362702 0.74276012 -0.6369732 -0.013652397 0.97857744
0.031627335 0.10745426 0.36557704 0.73754573 -0.64634371 -0.0046132556 0.98069113
0.10452352 0.099828176 0.36503792 0.66744816 -0.74025285 -0.016465232 0.99686128
0.10733815 0.10920714 0.36534828 -0.046945035 -0.041042686 0.0050670486 0.062562078
0.11178752 0.10934024 0.36298662 -0.02797702 -0.023105979 -0.0016144523 0.03632088
0.26851255 0.1091429 0.3652432 0.65458357 -0.040363312 0.013833862 0.65597272
0.27314162 0.10917434 0.36467817 0.67141938 -0.057874531 0.016046394 0.6741001
0.28225154 0.10198741 0.36435595 0.68815887 -0.077651769 0.024280109 0.69295162
0.34875759 0.10729294 0.36457443 0.77647948 -0.30067596 0.12725589 0.8423304
0.35310075 0.10403015 0.36517802 0.77941275 -0.29992414 0.11584482 0.84312439
0.029561941 0.11102414 0.36487743 0.7288565 -0.66083282 -0.0096359551 0.98388243
0.035137538 0.11494523 0.36499768 0.71858716 -0.67666781 -0.0086582825 0.98707741
0.040855303 0.11921443 0.36651024 0.70548987 -0.69512117 -0.0092191268 0.99045163
0.13158561 0.13415566 0.36408335 0.03870824 0.026632428 0.0099684875 0.048031081
0.12211706 0.11984325 0.36484325 0.0066922605 0.0049351454 0.004991021 0.0096980566
0.12304464 0.11864468 0.36450425 0.0059354901 0.0044963062 -0.00073139137 0.0074820952
0.25728986 0.11846223 0.36478761 0.64278001 -0.02857393 -0.0083763003 0.64346933
0.26669294 0.12032308 0.36506385 0.65802145 -0.044239759 0.020711312 0.65983206
0.27235958 0.11197773 0.36492035 0.66488218 -0.05161345 0.02485211 0.6673454
0.33926961 0.11916916 0.36736941 0.762752 -0.30435759 0.17057323 0.83876061
0.34561297 0.11523396 0.36406612 0.76450473 -0.30599275 0.16683279 0.84019774
0.35054988 0.1110481 0.36455998 0.77166235 -0.31008562 0.14884543 0.84484959
0.045637418 0.13126463 0.36159208 0.67581356 -0.73131847 -0.01029791 0.99581963
0.044222239 0.12523726 0.36231953 0.69000149 -0.71480763 -0.013782852 0.99360049
0.050320394 0.12938669 0.36371201 0.67007327 -0.73758197 -0.010245624 0.99655926
0.13605468 0.12726457 0.36462083 0.058376253 0.038641334 -0.001505503 0.070022896
0.13696311 0.12889086 0.36448485 0.046966314 0.031846434 0.0057509248 0.057035983
0.14288002 0.12872201 0.36505073 0.078255042 0.049177527 0.0047501433 0.092546448
0.15114456 0.12981796 0.36733574 0.10068274 0.059490681 0.015033971 0.11790748
0.23769161 0.13173905 0.36467245 0.54696357 0.040416986 -0.018232994 0.54875779
0.24512169 0.12796298 0.36494079 0.60188591 0.005007416 -0.019667195 0.60222799
0.25554028 0.12855053 0.36415058 0.6284827 -0.016593188 -0.029177129 0.62937838
0.26018763 0.12060724 0.36102417 0.63676476 -0.023599178 -0.025283491 0.6377033
0.33241874 0.12574992 0.36307919 0.7486611 -0.32585135 0.21162222 0.84347886
0.34196377 0.12250885 0.36475897 0.75661373 -0.32945573 0.19584996 0.84815246
0.055013631 0.13601759 0.36354285 -0.043341845 -0.037347078 -0.0098454896 0.058053885
0.05411249 0.13697304 0.36223465 -0.042778313 -0.036789089 -0.0053140265 0.056671511
0.15008543 0.1339162 0.36500108 0.1015403 0.059007734 0.0288899 0.12094202
0.15723072 0.13494572 0.36461395 0.11464244 0.063397497 0.042243414 0.13764679
0.16918685 0.13608359 0.36435512 0.15703578 0.077032685 0.056219928 0.18372521
0.1797488 0.13753791 0.36449239 0.21268024 0.088040262 0.075260773 0.24217381
0.1832287 0.1381966 0.36490902 0.22921288 0.089827329 0.08129324 0.25926065
0.19195202 0.13842131 0.36503255 0.27920586 0.093363643 0.089779206 0.30778724
0.20695335 0.13776687 0.36461893 0.36813223 0.095877022 0.051541336 0.38388833
0.21551822 0.13694446 0.36465716 0.39918095 0.093095481 0.027821349 0.41083601
0.22453035 0.13497062 0.3644346 0.47765562 0.072360873 -0.0021894211 0.48311052
0.23308697 0.13332385 0.36523563 0.51660717 0.056025088 -0.014114397 0.51982784
0.24268478 0.13010627 0.36894232 0.58381128 0.017791182 0.0064075855 0.58411747
0.3264792 0.14185923 0.3629708 0.70234919 -0.36758024 0.29474255 0.84574395
0.33244824 0.13238461 0.36449796 0.73864591 -0.33962396 0.23461194 0.84615898
0.066594355 0.14614557 0.36076289 -0.022771776 -0.018527716 -0.002537888 0.029466437
0.064329021 0.14626433 0.36270034 -0.023338109 -0.018998832 -0.0074962694 0.031013174
0.31421036 0.14973181 0.36267051 0.65981227 -0.38507649 0.3449305 0.83822024
0.32814035 0.14867143 0.36169147 0.6786648 -0.40373316 0.324907 0.85390335
0.072171442 0.15270634 0.36258197 -0.011376381 -0.0089462399 -0.0044129081 0.015130466
0.076426007 0.15532328 0.3615047 -0.0034613609 -0.0026323497 -0.0043738168 0.0061677028
0.08204335 0.15914734 0.36514458 0.0095582604 0.0072018504 -0.0086852219 0.014787159
0.29945037 0.15999599 0.36448365 0.58226496 -0.3654415 0.4079577 0.79938066
0.30431253 0.15878253 0.35978961 0.56472373 -0.42297778 0.41952303 0.820867
0.31151372 0.15156396 0.36648542 0.64930642 -0.35937402 0.35350901 0.82202017
0.32699007 0.15952617 0.36122209 0.64248788 -0.45052356 0.35784718 0.8624481
0.33677402 0.15815198 0.36292979 0.66236174 -0.43762386 0.34011051 0.86366248
0.34324655 0.1574868 0.362578 0.67231554 -0.42692709 0.33065847 0.86232823
0.10157853 0.15826406 0.35472003 0.011902243 0.0086095035 0.0090586487 0.017258216
0.085298806 0.16347548 0.36400938 0.018238634 0.013401866 -0.0052659665 0.023237646
0.099058121 0.16586505 0.35853955 0.011704177 0.0084225833 0.010161115 0.017640179
0.29428893 0.1641386 0.3546159 0.46989703 -0.50859022 0.45180175 0.82679623
0.28998327 0.16275828 0.35730803 0.47271323 -0.46832353 0.45878956 0.80825281
0.30460006 0.16625448 0.36305618 0.54902506 -0.42112228 0.42883638 0.8140474
0.3158507 0.16614287 0.36479717 0.58264148 -0.41616932 0.40841872 0.82430202
0.32548198 0.16400917 0.36537796 0.62107688 -0.43102169 0.37884346 0.84559953
0.33444029 0.16369359 0.36472881 0.64740074 -0.43710786 0.35498062 0.85802227
0.34449449 0.16508612 0.36325413 0.65822327 -0.44414872 0.34351012 0.86517346
0.35137066 0.16754177 0.36147436 0.67318428 -0.44871414 0.32702756 0.8726216
0.10092849 0.16922368 0.36290854 0.0172382 0.012231112 0.013155339 0.024896156
0.10645984 0.17367031 0.36410171 0.017073333 0.011880755 0.017540008 0.027208509
0.12187209 0.17363219 0.35850164 0.016561627 0.010053694 0.035603289 0.040533423
0.23459868 0.16470613 0.35004652 0.55734169 -0.042605072 -0.25282571 0.61348659
0.26006842 0.16793211 0.35693279 0.12072168 -0.60606557 0.40870351 0.74089658
0.28516567 0.17388202 0.36372775 0.42427221 -0.40509906 0.47880846 0.7572118
0.29634827 0.17073652 0.3607862 0.47847837 -0.44863158 0.45928481 0.80072117
0.30437627 0.17152563 0.36548194 0.52979261 -0.41393062 0.43943539 0.803195
0.31366879 0.17129104 0.3676202 0.55562711 -0.40476918 0.42567724 0.80855471
0.1433347 0.12881353 0.24479656 0.025567234 0.018417954 -0.0081819305 0.032555316
0.33562264 0.16947906 0.36315584 0.62997437 -0.45142892 0.36894017 0.85835463
0.34443414 0.17322758 0.36423147 0.64765859 -0.449229 0.35317102 0.86371183
0.35251772 0.17563573 0.36240584 0.65730637 -0.4550992 0.34277666 0.86986369
0.11898672 0.18489124 0.36252359 0.017924488 0.010434985 0.040880643 0.045841064
0.12995534 0.18809147 0.35955682 0.021048993 0.0093283057 0.063674517 0.067709096
0.1385394 0.18971314 0.35965607 0.034304827 0.013007909 0.089720793 0.09693218
0.14753801 0.18814227 0.35595936 0.036542058 0.010199457 0.10643563 0.11299511
0.15104176 0.18896818 0.3631537 0.055882767 0.017501414 0.12290416 0.1361419
0.23964627 0.20444779 0.35362303 0.094848216 -0.33806342 0.44367823 0.56580335
0.24628079 0.19537228 0.36049259 0.14179672 -0.33074042 0.46170723 0.58537942
0.25996301 0.20914061 0.35341901 0.15251926 -0.38971776 0.46980673 0.62917441
0.26527166 0.19292146 0.36067989 0.21546893 -0.40173319 0.48548138 0.66596442
0.27423951 0.18317707 0.3644318 0.29478619 -0.39980021 0.49337181 0.70011061
0.28382763 0.18245831 0.36811993 0.3799167 -0.37757713 0.48736432 0.72417206
0.29475552 0.18126865 0.3688108 0.4576751 -0.38430455 0.46922871 0.75982374
0.33843574 0.183677 0.36885518 0.60812157 -0.43182105 0.38906518 0.84122115
0.33690792 0.17872722 0.36381105 0.61496031 -0.45175409 0.38140595 0.85307002
0.35587242 0.18709107 0.36239436 0.62318212 -0.48921001 0.36735031 0.87328613
0.36217287 0.18799886 0.3610293 0.62575823 -0.50297385 0.36143664 0.88045019
0.13979597 0.19015302 0.36694992 0.043437272 0.020380467 0.083017372 0.095885575
0.14870377 0.19362752 0.36283699 0.046296477 0.012934297 0.11860556 0.12797633
0.16130619 0.19575527 0.36114115 0.058931947 0.0064275563 0.15872774 0.16943666
0.1680159 0.19557671 0.36248532 0.074428216 0.0016465485 0.1897075 0.20379207
0.18168899 0.19683641 0.36222985 0.086143836 -0.017030239 0.23490281 0.25077903
0.1882472 0.19763453 0.36189789 0.098025858 -0.029457241 0.26294318 0.28216293
0.19495809 0.1968751 0.36336845 0.10575315 -0.04476741 0.28801098 0.31006157
0.20912029 0.19838521 0.35987571 0.11383438 -0.13199836 0.3725214 0.4112834
0.22546194 0.19853772 0.35892671 0.11735161 -0.23039238 0.42637315 0.49864426
0.23320042 0.20214829 0.35730404 0.10959797 -0.28584304 0.44046754 0.53640431
0.23417661 0.20110025 0.35823119 0.11550146 -0.29102138 0.4442386 0.54349053
0.24260621 0.20164014 0.35659572 0.11318444 -0.33970925 0.45197335 0.57662207
0.25397602 0.19453032 0.36687151 0.19391817 -0.29669771 0.47078741 0.58930004
0.30439302 0.22510183 0.34067875 0.32748657 -0.51554048 0.478576 0.77592808
0.27264029 0.19360071 0.36254972 0.25570059 -0.40452418 0.4910371 0.68566757
0.28230292 0.19724959 0.36032307 0.30382758 -0.42259642 0.49279857 0.71676314
0.35158291 0.20151441 0.3609989 0.57350284 -0.50905687 0.39958292 0.86470276
0.35298982 0.19703291 0.36330542 0.59002578 -0.49958655 0.39071083 0.8662402
0.36350983 0.19585055 0.36278918 0.60660446 -0.50938135 0.37549198 0.87660283
0.37187946 0.19997284 0.36081681 0.60926819 -0.52803165 0.36732852 0.88597709
0.21662413 0.20825295 0.36199433 0.10520194 -0.17589793 0.39549443 0.44544739
0.22585499 0.2063337 0.36443844 0.12295239 -0.19410698 0.41309705 0.47269863
0.235485 0.20351164 0.36590397 0.15741265 -0.22964694 0.44128343 0.52177346
0.24420503 0.20016614 0.36555672 0.14723708 -0.27965307 0.45351654 0.55277646
0.25025854 0.2004399 0.36799127 0.15896149 -0.2835311 0.45831668 0.56188327
0.26953796 0.20314908 0.36020613 0.22267264 -0.3964051 0.48675486 0.66607088
0.27745146 0.20368847 0.36013868 0.2673997 -0.39937362 0.49209762 0.6878677
0.28001842 0.20563376 0.3606416 0.27997714 -0.4039928 0.49282137 0.69603902
0.37802073 0.21711844 0.32425776 0.6488986 -0.60373873 0.2907972 0.93280911
0.35744247 0.20523734 0.36551934 0.57821405 -0.50573099 0.3973307 0.86485088
0.36514008 0.20503649 0.36346579 0.58942312 -0.51722419 0.38615134 0.87410146
0.37233654 0.20588818 0.36120972 0.59755111 -0.53504437 0.37410545 0.88503939
0.19792724 0.21780166 0.36118087 0.065833285 -0.098247439 0.31608284 0.33748326
0.20174046 0.21488212 0.3603856 0.074681222 -0.11626118 0.33792344 0.36508381
0.2110201 0.21395494 0.36402479 0.088909253 -0.14109024 0.3653422 0.40160456
0.22333264 0.21120253 0.36743233 0.11958122 -0.17298791 0.40071878 0.45254835
0.27857763 0.2155441 0.36021638 0.24457905 -0.39467832 0.48987982 0.67496085
0.28713033 0.21651149 0.36026829 0.28623492 -0.41582531 0.49277321 0.70545483
0.29126054 0.2101205 0.36016798 0.32280189 -0.43343815 0.49177319 0.73069185
0.35018772 0.20332626 0.34178558 0.57720017 -0.56829202 0.37569597 0.89289606
0.36389619 0.21353513 0.36507884 0.56860095 -0.51993436 0.39964193 0.86795878
0.37346306 0.21552406 0.36350164 0.57597446 -0.5342356 0.39007199 0.87710345
0.38319325 0.21741268 0.36066473 0.59132862 -0.55513227 0.37100226 0.89189911
0.20196472 0.22307222 0.35750285 0.043734014 -0.13312727 0.32909876 0.35768917
0.21263205 0.22414532 0.36126292 0.069404572 -0.1650416 0.36919743 0.41031995
0.22207232 0.22735952 0.36799341 0.089547902 -0.17678295 0.38784611 0.43554062
0.2872377 0.22739285 0.36026055 0.26884317 -0.39312136 0.49219492 0.68489188
0.29700759 0.22374035 0.36008424 0.3190743 -0.42102602 0.4926585 0.72234595
0.35780308 0.2234267 0.36977905 0.53089631 -0.50321907 0.4262777 0.8466363
0.36039275 0.22082345 0.36478662 0.54511136 -0.51631618 0.41503468 0.8578943
0.37422785 0.22166152 0.36237165 0.56606746 -0.54222637 0.3938621 0.87725091
0.38257238 0.2265643 0.36227354 0.57517052 -0.54736656 0.38582709 0.8827762
0.20858973 0.23830479 0.3566111 0.039976567 -0.15225953 0.3404443 0.37507784
0.21788314 0.24012394 0.35977921 0.050576419 -0.17774123 0.36453524 0.4087002
0.22784311 0.23797919 0.36487561 0.079371691 -0.20564227 0.39709559 0.45417345
0.23279318 0.23844072 0.3696315 0.086626932 -0.21389441 0.4048216 0.46597809
0.29543281 0.23384862 0.36023611 0.2874493 -0.39947829 0.49317628 0.69673008
0.30433846 0.2388885 0.36014938 0.30969962 -0.41625366 0.49305698 0.71574169
0.36146984 0.22966993 0.34584981 0.55823362 -0.5510866 0.39558262 0.87852538
0.37472898 0.2362424 0.36532438 0.54770678 -0.53357571 0.40823638 0.86680025
0.38436705 0.23535249 0.36335522 0.56875288 -0.54117167 0.39247969 0.8777169
0.39141065 0.23689443 0.36169338 0.58582985 -0.55090296 0.3768487 0.88809103
0.21511759 0.24540329 0.35542339 0.025505126 -0.18856978 0.35257158 0.40064421
0.22491637 0.24614908 0.36142728 0.046448886 -0.21752141 0.38257959 0.44253838
0.23274833 0.24602363 0.36846215 0.074813604 -0.22897761 0.40481728 0.47106776
0.30298972 0.24618945 0.36015213 0.29179466 -0.4045817 0.49325666 0.70152164
0.31416893 0.24636793 0.36007705 0.33682811 -0.42549637 0.49158657 0.73222786
0.36856899 0.24357352 0.36987713 0.51216716 -0.51395392 0.43284896 0.84487993
0.38057533 0.24850696 0.36011586 0.5542897 -0.5364868 0.40332934 0.87047672
0.38571292 0.24495849 0.36418205 0.56308758 -0.54083455 0.39630419 0.8755722
0.39284945 0.24594201 0.36249793 0.57505631 -0.55110151 0.3844589 0.88442713
0.22474861 0.24773781 0.35412589 0.027801067 -0.23200627 0.37611595 0.44279003
0.22866309 0.25092614 0.3582561 0.034124047 -0.23477767 0.38177449 0.449485
0.23229539 0.25454774 0.36501372 0.055610463 -0.23622844 0.3964586 0.46483958
0.24320595 0.25727418 0.3693428 0.088225111 -0.25282109 0.42079994 0.49877325
0.30779418 0.25115794 0.36019823 0.30208975 -0.40405235 0.49341682 0.70567465
0.31358212 0.25560749 0.36014411 0.31914574 -0.40254197 0.49322394 0.71215439
0.38710746 0.25309417 0.3479133 0.58886993 -0.55867356 0.37136793 0.89263546
0.37743989 0.25095552 0.36310661 0.54297441 -0.52700394 0.41308308 0.86208588
0.39213127 0.25335532 0.36202988 0.56741595 -0.54771572 0.39094362 0.88022172
0.40247253 0.25548649 0.36085883 0.58494431 -0.55646449 0.37522405 0.89028406
0.22653733 0.25714424 0.35677764 0.02218765 -0.23883417 0.37489209 0.44505969
0.23229392 0.25829968 0.36014834 0.041024208 -0.24059907 0.38883439 0.4590894
0.24357362 0.26597169 0.36806777 0.075699016 -0.24839911 0.41269225 0.48759344
0.25143787 0.26886553 0.36974066 0.093716994 -0.26266849 0.42670232 0.50975728
0.31567949 0.26396769 0.36019063 0.31024191 -0.39746332 0.49344215 0.70548725
0.37945637 0.26239586 0.36983749 0.51264054 -0.51472539 0.43242571 0.84541976
0.38535169 0.25005364 0.36129892 0.56195831 -0.54252958 0.39641756 0.87594658
0.38566518 0.25907171 0.36391371 0.54626536 -0.5308513 0.40997598 0.86503714
0.40069407 0.26362613 0.36247653 0.57174158 -0.54805678 0.38791597 0.88189197
0.41058511 0.26896751 0.36097226 0.59074879 -0.55536711 0.37135172 0.89180654
0.23385714 0.28826147 0.346944 0.0027338266 -0.23106681 0.35625541 0.42463779
0.23935348 0.2802875 0.35677704 0.03682223 -0.25090289 0.38994387 0.46514982
0.24576551 0.27743155 0.36485419 0.063813567 -0.25587016 0.40859577 0.48630464
0.25208855 0.2775186 0.36854559 0.083644643 -0.26195264 0.42143354 0.5032115
0.31892246 0.27316767 0.36009926 0.30800712 -0.39025947 0.49342355 0.70045531
0.32540724 0.2755335 0.36009812 0.32631898 -0.40150878 0.49297145 0.7146427
0.23777823 0.18234137 0.29752305 0.6231606 -0.065929234 -0.20401812 0.65901381
0.38453662 0.26810706 0.36277065 0.53378141 -0.5269056 0.41821089 0.85875052
0.39879522 0.27486312 0.36221084 0.56150562 -0.53895986 0.39798075 0.87415957
0.41205245 0.27596486 0.36163962 0.58483839 -0.55150682 0.37733912 0.88802058
0.23994365 0.28259844 0.35098755 0.022345304 -0.24605909 0.37791738 0.45151514
0.24722667 0.28576797 0.3614819 0.053987831 -0.25882316 0.40374827 0.48261455
0.25733727 0.28759789 0.36137259 0.074414194 -0.26766708 0.41832018 0.50217021
0.26050839 0.2863853 0.36932912 0.090149552 -0.27980781 0.42990008 0.52080077
0.32553646 0.28621402 0.36004186 0.30144528 -0.3878974 0.49339259 0.69625419
0.38793513 0.28959614 0.35862398 0.51820999 -0.5088802 0.43128088 0.84469157
0.40198067 0.28507584 0.36229482 0.55432171 -0.53248632 0.40465462 0.86865389
0.40875602 0.28501031 0.36067155 0.57354832 -0.54446471 0.38804951 0.88089836
0.42181912 0.28697193 0.36092305 0.59559107 -0.5527634 0.36872622 0.8923201
0.23912132 0.29183799 0.36135301 0.036314011 -0.24598913 0.38775805 0.46063614
0.24597168 0.29212371 0.35895258 0.042334914 -0.2479924 0.39253688 0.46623778
0.25617045 0.29193708 0.36019462 0.061372891 -0.25999308 0.40854976 0.48813516
0.2619862 0.29028037 0.36195242 0.078431606 -0.27035356 0.42127216 0.50666833
0.33304355 0.2972483 0.36011073 0.30778059 -0.39063048 0.49342981 0.70056695
0.39771792 0.29128003 0.36126739 0.54045105 -0.52192056 0.41604978 0.85882819
0.41046718 0.29117766 0.3628678 0.56431723 -0.53677255 0.39694598 0.87415373
0.42275199 0.29667032 0.3618117 0.58318102 -0.54889435 0.37958521 0.88626748
0.23516342 0.29315335 0.3522664 0.0094311237 -0.22894157 0.36075816 0.42737529
0.25378928 0.29645044 0.35840303 0.050036669 -0.2491124 0.39789945 0.47210658
0.26360178 0.29890454 0.36297193 0.069455594 -0.26088646 0.4134669 0.49380228
0.27109766 0.30647045 0.36971635 0.087614536 -0.27112192 0.42622107 0.51268685
0.33812818 0.30722678 0.36001021 0.30553016 -0.38685188 0.49338046 0.69744343
0.34135056 0.30527234 0.36005265 0.32146481 -0.39621496 0.49318486 0.70961767
0.40459526 0.29001221 0.35755897 0.56696773 -0.53430402 0.39607829 0.87396294
0.40344805 0.29210913 0.36180457 0.55238479 -0.52863783 0.40707371 0.86619622
0.42019996 0.30356026 0.36346284 0.56829339 -0.53512871 0.39492756 0.87480736
0.4313952 0.30567548 0.36124545 0.5961358 -0.54210979 0.37256527 0.88773072
0.24866481 0.31132191 0.36072198 0.028888643 -0.23199366 0.37689444 0.44351441
0.25853306 0.31678462 0.35723707 0.036383867 -0.2345687 0.38324887 0.4508059
0.2660175 0.31524241 0.35910654 0.052610517 -0.2470495 0.39874893 0.47201911
0.27365506 0.32009885 0.36223984 0.06548278 -0.25566676 0.40948749 0.48716885
0.39538959 0.30152377 0.35874239 0.52158803 -0.50679511 0.43014637 0.84493864
0.41976947 0.31130847 0.36220756 0.56511319 -0.52698898 0.39970282 0.86996132
0.4331578 0.31593496 0.36230454 0.59156811 -0.53141451 0.37993523 0.88130867
0.25832602 0.3227258 0.36168942 0.035514951 -0.23396339 0.38239744 0.44969764
0.26918039 0.32296658 0.35930154 0.046417326 -0.24517399 0.39413157 0.46648103
0.28056762 0.32515711 0.36129746 0.073879942 -0.25624767 0.41439214 0.49278998
0.28168142 0.32584053 0.36948121 0.08571887 -0.26445106 0.42327091 0.50639939
0.41754773 0.32346407 0.36946616 0.53793734 -0.50265551 0.42266825 0.84893322
0.42586303 0.32435849 0.36240542 0.56946647 -0.51662558 0.40007842 0.86675072
0.43568167 0.3249203 0.36129135 0.59203243 -0.52360004 0.38222948 0.87792867
0.44169459 0.32658926 0.3617394 0.60141009 -0.52507013 0.37461966 0.88189149
0.26482862 0.32688788 0.35626626 0.031798005 -0.23203677 0.37898463 0.44551265
0.27449161 0.32828566 0.35665643 0.04522565 -0.24143757 0.39192665 0.46254078
0.2828038 0.33572543 0.36801401 0.072121993 -0.25547877 0.41316789 0.49109948
0.41601881 0.32087293 0.35421747 0.56159818 -0.52113587 0.40375966 0.86602366
0.43318248 0.33173272 0.36274374 0.57683241 -0.51014924 0.3970575 0.86639631
0.43777281 0.33370203 0.36118057 0.58967125 -0.51055253 0.3879697 0.87114668
0.45253119 0.33932659 0.36041987 0.61454868 -0.51808143 0.366355 0.88334274
0.26773366 0.34288284 0.36062244 0.027750552 -0.22865681 0.37462011 0.43976614
0.26648387 0.3346473 0.35687551 0.02758047 -0.22945046 0.3748455 0.44036049
0.28127217 0.33444199 0.36115286 0.061323673 -0.2477961 0.40430582 0.47814924
0.29227194 0.34622943 0.3690778 0.084280938 -0.25631231 0.41994506 0.49915242
0.42805761 0.34256309 0.36927503 0.54435468 -0.48321968 0.42348832 0.84211975
0.42700034 0.33261153 0.36038232 0.56856072 -0.50651705 0.40351111 0.86176682
0.4419761 0.34140471 0.36274719 0.58449209 -0.50441706 0.39336851 0.86649084
0.4430711 0.33998558 0.35999641 0.59688014 -0.5085181 0.3832441 0.87277293
0.27004898 0.34013265 0.35202038 0.019438595 -0.22476402 0.3666788 0.43052304
0.28316838 0.34972331 0.35888585 0.04657355 -0.23605368 0.39066675 0.45881474
0.2962071 0.35641649 0.36471403 0.072564006 -0.25159252 0.41208598 0.4882409
0.30058941 0.35687673 0.36969835 0.093702257 -0.26078317 0.42610636 0.50828594
0.43228725 0.35755235 0.35857925 0.55619156 -0.4680298 0.41949081 0.83926964
0.43704557 0.34845355 0.36129895 0.57425004 -0.49299332 0.40320688 0.85754377
0.4484047 0.35356012 0.36081117 0.60006315 -0.49096143 0.38548023 0.86586022
0.4611671 0.35778886 0.36086631 0.61776185 -0.48631507 0.37260926 0.87004006
0.27817842 0.36167344 0.36161417 0.028168827 -0.22939104 0.37524554 0.44070733
0.29056633 0.36286077 0.35361633 0.037562966 -0.23054451 0.3823635 0.4480665
0.29688203 0.36317968 0.35927209 0.058250964 -0.24021696 0.39963391 0.46989852
0.30185309 0.36698574 0.36790398 0.07929787 -0.25067827 0.41542882 0.49163896
0.43801123 0.36064586 0.36973321 0.55489349 -0.46303004 0.42106041 0.83641827
0.44071233 0.36340198 0.35856235 0.58012271 -0.46265721 0.40530103 0.8454957
0.45123169 0.3656311 0.36224374 0.59530878 -0.46771801 0.39385098 0.85338807
0.46312842 0.36634097 0.36162829 0.61852455 -0.47249725 0.3749859 0.86396801
0.28823689 0.36342531 0.34988552 0.024658322 -0.22340576 0.36998436 0.43290481
0.29797634 0.36834115 0.35777444 0.05439274 -0.23578593 0.39552623 0.46367505
0.30351052 0.37011957 0.36157316 0.070713475 -0.24379998 0.40826654 0.48074985
0.3119565 0.37806764 0.36935124 0.092562497 -0.25005805 0.42202824 0.49920404
0.44756523 0.37374744 0.36935076 0.5733 -0.44107091 0.41264245 0.83276063
0.44850352 0.36954221 0.35984939 0.59256566 -0.46270296 0.39668399 0.85005075
0.46106231 0.37438396 0.36220571 0.60769689 -0.4622013 0.38551173 0.85530394
0.47181761 0.37422931 0.3602964 0.63429987 -0.45879978 0.36398834 0.86331981
0.28945231 0.38110834 0.36030072 0.02792412 -0.22023106 0.37092102 0.43227756
0.29759771 0.37066355 0.35350204 0.045544297 -0.2277687 0.38653949 0.45096079
0.30333832 0.37460425 0.35909399 0.058575511 -0.23276955 0.39688438 0.46382105
0.31382832 0.37791973 0.36252072 0.089702636 -0.24587135 0.4191432 0.49414605
0.44666359 0.38754281 0.36510971 0.56942642 -0.40515485 0.41735193 0.81398988
0.44969466 0.37945199 0.36081132 0.58547592 -0.44436401 0.40420651 0.8388232
0.46135566 0.38070938 0.36436892 0.60434592 -0.44059464 0.39106849 0.84397405
0.275653 0.35969457 0.34636524 -0.0017997324 -0.21365725 0.34388274 0.40485552
0.2979632 0.38059732 0.35722286 0.042920947 -0.22425812 0.38326561 0.44612378
0.30810905 0.38044909 0.35965115 0.065518364 -0.23321199 0.40121016 0.4686684
0.32148066 0.39636585 0.36886048 0.099902764 -0.230786 0.41855422 0.48829332
0.42559224 0.39244416 0.36192644 0.50363278 -0.36139825 0.45069814 0.76640946
0.43525159 0.39438188 0.36498401 0.5343833 -0.36062902 0.43596482 0.77825713
0.43800798 0.38281888 0.36007822 0.5508846 -0.40959898 0.42828768 0.80912018
0.31233302 0.40272471 0.35383806 0.054018646 -0.20232217 0.38022017 0.43407333
0.31844899 0.40223461 0.35659441 0.073431596 -0.20893295 0.39527145 0.45308352
0.32219568 0.4049781 0.3642959 0.087596208 -0.21429625 0.40550271 0.46693513
0.40834799 0.40911612 0.36499983 0.4141289 -0.28737932 0.46888804 0.6884371
0.4137243 0.40353444 0.3611359 0.45019966 -0.29651409 0.46114004 0.70940149
0.42320272 0.40168428 0.36486 0.48509634 -0.32013175 0.45335078 0.73710901
0.4303962 0.40011358 0.36484432 0.51645947 -0.333951 0.44190422 0.75731963
0.30890366 0.41242075 0.36127597 0.051460087 -0.1949254 0.37472966 0.42551896
0.31310791 0.40587634 0.35113525 0.047851562 -0.1948853 0.37228951 0.4229297
0.3259238 0.41309661 0.36209622 0.090327308 -0.20559274 0.40297914 0.46132371
0.33239132 0.41782877 0.36830822 0.11081484 -0.20682637 0.41361091 0.47553238
0.38884902 0.41977316 0.36411735 0.32435173 -0.22447293 0.46247748 0.60784662
0.39539298 0.41711587 0.36501229 0.3488363 -0.23704617 0.46523345 0.62794888
0.40028277 0.40953612 0.36144388 0.38445038 -0.26483983 0.46909997 0.66181338
0.41120681 0.41050512 0.3655681 0.42644924 -0.27425763 0.46264604 0.68638003
0.31060684 0.41082579 0.35210595 0.038832158 -0.18922997 0.36290416 0.41111475
0.32199308 0.41714567 0.35749483 0.070558459 -0.19128644 0.3848435 0.43551522
0.33321396 0.42174521 0.36196768 0.099850699 -0.19984515 0.40511894 0.46263334
0.34108627 0.42819428 0.3695066 0.13256845 -0.19945595 0.41963175 0.48316443
0.37689906 0.42596421 0.36321419 0.27253953 -0.19110778 0.44817156 0.55826312
0.38360009 0.41990548 0.36092752 0.30073762 -0.21185608 0.45806763 0.5874964
0.39157736 0.42119238 0.36475906 0.33241686 -0.22504261 0.46227288 0.61224288
0.33117601 0.37260836 0.3479566 0.13051859 -0.26037061 0.44204265 0.52936721
0.32066575 0.4207269 0.35336474 0.061269984 -0.18479683 0.37561652 0.42307404
0.33286437 0.42376107 0.35661441 0.08977741 -0.1850151 0.39243883 0.4430562
0.34224886 0.43649054 0.36849821 0.12593555 -0.1840423 0.40937209 0.46617255
0.35758272 0.43863377 0.36515757 0.17679116 -0.17342968 0.42231929 0.48957792
0.3649745 0.43494383 0.36490929 0.20470469 -0.18267694 0.43426177 0.51367128
0.37256721 0.43131691 0.36497733 0.23829864 -0.19193314 0.44484586 0.5399189
0.32746908 0.44301882 0.36137989 0.079168826 -0.16057082 0.37237221 0.41317278
0.33054781 0.42964709 0.35463285 0.077198043 -0.17771268 0.38138103 0.4277766
0.34355119 0.44278201 0.36341885 0.12063463 -0.17115086 0.40017262 0.45164528
0.34939533 0.43669939 0.36056185 0.1411017 -0.17667119 0.41176197 0.46975559
0.3276867 0.44261429 0.35724244 0.074314296 -0.15827228 0.36799139 0.40741917
0.34106025 0.45025757 0.36161011 0.10787424 -0.15655226 0.38559034 0.42991322
0.029337045 0.0092637539 0.37565571 -0.02685377 -0.022090644 -0.0033868614 0.034936976
0.035758875 0.0088530947 0.37509951 -0.015950441 -0.01273632 -0.0021287315 0.020522231
0.041913997 0.008926386 0.37489876 -0.010566741 -0.0083411634 0.00022644084 0.013464112
0.0061792824 0.018750245 0.37477732 0.80424523 -0.39023119 -0.015812516 0.89405864
0.015115503 0.015894378 0.37517443 0.77933276 -0.55282998 -0.010295643 0.95555562
0.024824927 0.012752667 0.37487933 0.71254909 -0.68537962 -0.010434654 0.98872662
0.033728048 0.010753751 0.37527671 -0.042356282 -0.036434919 -0.00026685186 0.055871543
0.044651911 0.015054702 0.37453517 -0.050479949 -0.04443419 -0.00033591501 0.067251287
0.05111276 0.018887633 0.37491328 0.66793334 -0.73976111 -0.015688367 0.99680871
0.33671051 0.016707473 0.37474439 0.60447156 0.0032815635 -0.0067933174 0.60451865
0.34527144 0.015245279 0.37478206 0.58788449 0.015201718 -0.0086616632 0.58814478
0.35451627 0.018128555 0.37499276 0.63156772 -0.018644959 -0.014216448 0.63200277
0.36155844 0.019664437 0.37588882 0.66710126 -0.052532822 -0.010159226 0.66924363
-0.00054427551 0.023825468 0.37516996 0.80410975 -0.38135609 -0.011954026 0.89003813
0.0021404186 0.024164625 0.37501141 0.80432385 -0.39375818 -0.012881023 0.89562732
0.010536969 0.020296536 0.37888977 0.79923248 -0.46809292 -0.0091123926 0.92626482
0.04814826 0.021881053 0.37509927 0.68115067 -0.7252723 -0.012184053 0.99505508
0.053914811 0.025713103 0.37494895 0.68698645 -0.71841884 -0.014139161 0.99412066
0.060389087 0.029145077 0.37496975 0.68162715 -0.72474146 -0.011144445 0.99498242
0.3275319 0.02692402 0.3750079 0.65403455 -0.039246261 -0.0078241015 0.6552577
0.33314776 0.023316847 0.37519363 0.64133495 -0.027248532 -0.0079817837 0.64196318
0.35776553 0.020386048 0.37582442 0.64688402 -0.032410055 -0.010771776 0.64778495
0.36520973 0.022518635 0.37485993 0.70711827 -0.10037819 -0.010862807 0.7142899
0.37484264 0.026226401 0.37479746 0.77823538 -0.23713243 -0.0082720155 0.8136034
0.38087061 0.028108165 0.37517139 0.79190534 -0.28572148 -0.0065754186 0.8418991
-0.00028801709 0.031619057 0.37873006 0.80320072 -0.43063655 -0.010266016 0.91141903
0.0023527236 0.035167947 0.37528062 0.80071425 -0.4561612 -0.016561419 0.92168361
0.057467401 0.033170864 0.37570307 0.70051879 -0.70152885 -0.016735893 0.99153888
0.062724866 0.035479754 0.3746784 0.69940311 -0.70300972 -0.015569206 0.99178112
0.31810015 0.037748929 0.37552932 0.66216451 -0.047384888 -0.0074900454 0.66390002
0.32360482 0.03339529 0.3749814 0.661645 -0.046871334 -0.010213063 0.66338176
0.37752488 0.03507401 0.37470955 0.78653288 -0.26430404 -0.0063141757 0.82977736
0.3806963 0.034450792 0.37454945 0.79444206 -0.2975471 -0.0046540685 0.8483479
0.0041571194 0.044752829 0.37504038 0.79500395 -0.49282178 -0.011803471 0.9354378
0.05953696 0.040854197 0.3747184 0.71262228 -0.68512881 -0.016528122 0.98868859
0.064127259 0.045152202 0.3749153 0.70610273 -0.6941433 -0.016431462 0.99029589
0.31563467 0.04502672 0.37495157 0.66488552 -0.050197184 -0.0082656741 0.66682893
0.32074031 0.04333175 0.37577042 0.66754401 -0.052987665 -0.0086807851 0.66969997
0.37653363 0.045016155 0.37503806 0.77488351 -0.22749449 -0.005438664 0.80760622
0.0064314632 0.054617617 0.37501594 0.78901541 -0.51959836 -0.0068025431 0.9447614
0.010975722 0.057479676 0.37463927 0.78124475 -0.54685408 -0.011574326 0.95369112
0.06650243 0.05451211 0.37499756 0.71263468 -0.68509585 -0.01696391 0.98868209
0.071177989 0.057077076 0.37396654 0.70797282 -0.69152856 -0.01840286 0.98983634
0.30912155 0.058235932 0.37369937 0.68295407 -0.070036978 -0.0053845365 0.68655694
0.3127065 0.054881476 0.37531376 0.68428981 -0.071596861 -0.0086401328 0.68807942
0.36948976 0.058556817 0.37463993 0.78514242 -0.26060587 0.012086987 0.82735127
0.37401551 0.054769564 0.37503764 0.78721857 -0.26743895 0.006054664 0.83142847
0.0085001979 0.06438037 0.37517926 0.78197098 -0.54454368 -0.011132025 0.95295876
0.011417617 0.066345178 0.37471113 0.77881902 -0.55413663 -0.016110307 0.95597386
0.066642858 0.062035382 0.37484112 0.71723807 -0.67837346 -0.019256903 0.98741674
0.073587172 0.065950073 0.37507111 0.70988536 -0.68874604 -0.021589577 0.98933029
0.30680281 0.065187626 0.37509882 0.69544375 -0.08539927 0.0071472232 0.70070404
0.31235737 0.064412184 0.37577036 0.70564187 -0.099030912 0.013621461 0.71268725
0.36865473 0.066605948 0.37481853 0.79031801 -0.28308928 0.024370696 0.83984286
0.37202254 0.064082518 0.37492138 0.79089987 -0.28381866 0.017007323 0.84045517
0.009986639 0.071253851 0.37155631 0.77847606 -0.55544269 -0.0085695814 0.95635504
0.013665901 0.075279966 0.37486374 0.77217877 -0.57292783 -0.015245628 0.96163338
0.083549999 0.081218496 0.37482125 0.70782334 -0.69180155 -0.016555391 0.98988754
0.081621595 0.076980643 0.37559584 0.70781231 -0.69177663 -0.017670402 0.98988152
0.29875839 0.078166194 0.37476519 0.69857049 -0.090895534 0.02697685 0.70497549
0.30305567 0.077643804 0.37492356 0.7056812 -0.10089454 0.031940542 0.71357262
0.36501172 0.076042429 0.37403086 0.79024822 -0.2877906 0.038948193 0.84192199
0.37068263 0.07258632 0.37525406 0.79225683 -0.29370394 0.030409895 0.84549254
0.017102687 0.084784642 0.37512836 0.7645694 -0.59199119 -0.013770611 0.96706235
0.021172622 0.087087654 0.37529168 0.76194012 -0.59815955 -0.010696702 0.96874249
0.078929015 0.081374593 0.37564287 0.71069646 -0.68759137 -0.022069089 0.98912001
0.086628668 0.087462589 0.37451622 0.70697582 -0.69290966 -0.017854862 0.99007946
0.091294408 0.089122936 0.37529081 0.6964891 -0.70677871 -0.013732215 0.99238187
0.28951406 0.089165986 0.37523669 0.6994189 -0.092795819 0.033614211 0.70634818
0.29523936 0.087671727 0.37455785 0.70737422 -0.10494056 0.043423783 0.71643311
0.30132097 0.082714416 0.37423339 0.70740473 -0.1034604 0.033533402 0.71571642
0.35897884 0.088364378 0.37637833 0.78561723 -0.27594 0.055333003 0.83450526
0.36343896 0.084649682 0.37499988 0.78758973 -0.28223306 0.051814206 0.8382349
0.019179711 0.091243967 0.374309 0.76147902 -0.59916288 -0.012331544 0.96901935
0.023398627 0.095484912 0.37497622 0.7553885 -0.61244798 -0.0091576846 0.97251642
0.086917557 0.09070158 0.37532577 0.70187271 -0.6995399 -0.021968327 0.99119318
0.09379901 0.09593679 0.37515041 0.6809358 -0.72539425 -0.017182972 0.9950707
0.10039198 0.098828606 0.37401247 0.67133331 -0.73624665 -0.0064382721 0.99638796
0.28340209 0.095596224 0.37485275 0.69044828 -0.082486302 0.040881027 0.69655877
0.29236403 0.092766076 0.3743946 0.71021998 -0.1075666 0.034926038 0.71916813
0.35624173 0.099322155 0.37362 0.78169215 -0.28442916 0.091280684 0.83682418
0.36161897 0.091857001 0.37489069 0.78809273 -0.29416174 0.067664914 0.84391934
0.027277239 0.10423136 0.37492287 0.74580133 -0.63141114 -0.010751302 0.97724879
0.03168755 0.10773847 0.37452 0.73595428 -0.64905536 -0.010774733 0.98133463
0.12140203 0.12785503 0.37320808 0.019173354 0.013921082 0.0039584944 0.024022568
0.10700636 0.10883771 0.37522495 -0.045429468 -0.039529353 0.0043552406 0.060376935
0.11139522 0.10865132 0.37426794 -0.033870339 -0.028430492 -0.0018953457 0.044261556
0.26865083 0.10953572 0.37251878 0.66135836 -0.047397763 0.017689973 0.66329056
0.27796438 0.11525584 0.37464315 0.67157388 -0.065065056 0.065698445 0.67790943
0.28431478 0.11110347 0.37396446 0.69649446 -0.092812985 0.056115262 0.70488846
0.34833136 0.10819849 0.37489071 0.77027529 -0.27233177 0.1256637 0.82660753
0.35418105 0.1063055 0.37363222 0.77424848 -0.28707045 0.12463367 0.83510703
0.029297393 0.11042963 0.37492251 0.73035252 -0.65842664 -0.0082885418 0.98336625
0.035868857 0.11504906 0.37325919 0.7159816 -0.68048036 -0.0090648355 0.98780835
0.040534034 0.1182907 0.37373096 0.70690483 -0.69315577 -0.012811977 0.99012297
0.12119178 0.12079743 0.37335259 0.0068069398 0.0051456392 -0.00090298988 0.0085806428
0.12111279 0.11813539 0.3742488 0.0013135374 0.00089138746 0.0049952287 0.0052413987
0.12252934 0.1185832 0.37494376 0.0024270117 0.0017541945 0.0044118324 0.0053321524
0.25727263 0.11859675 0.37523976 0.64764333 -0.034401447 0.024201196 0.64900774
0.26673689 0.11882964 0.37462679 0.65573567 -0.044461191 0.043569896 0.65868384
0.2723273 0.11198705 0.37454957 0.66208041 -0.049856901 0.035687372 0.66491336
0.33919796 0.11943518 0.37595677 0.7582736 -0.28336835 0.16992675 0.82713455
0.34597212 0.11589381 0.3741248 0.76243323 -0.28272051 0.15838274 0.8284446
0.35117882 0.11135143 0.37130272 0.77068019 -0.29502589 0.14254931 0.83744168
0.041020494 0.12162644 0.37107539 0.70029449 -0.70198655 -0.0081506362 0.99159664
0.04390702 0.1249999 0.37422159 0.68445933 -0.7214886 -0.0058596325 0.99451733
0.050410233 0.12911379 0.37493652 0.67366791 -0.73366594 -0.011731401 0.99610829
0.11977243 0.12024547 0.37458041 0.0026645362 0.0020525455 -0.0015212153 0.0036914486
0.13218151 0.12547636 0.37404528 0.0367845 0.025552869 0.006083936 0.045200251
0.13701814 0.12773122 0.37414509 0.062138304 0.04060027 0.0058408841 0.074455805
0.14342074 0.12899804 0.37486771 0.087777197 0.053656489 0.01162258 0.10353231
0.22983208 0.12984914 0.37247044 0.50229967 0.061868101 0.018032493 0.50641662
0.23707883 0.1307358 0.3745456 0.54104948 0.040059656 0.050796025 0.54490328
0.24477841 0.12716143 0.37479791 0.59509021 0.008546412 0.02975399 0.59589487
0.25453481 0.12687956 0.37448433 0.6259833 -0.016414344 0.038237046 0.62736481
0.26172346 0.12030891 0.37512422 0.6541307 -0.04142493 0.032036729 0.65622354
0.32976288 0.12943804 0.37573975 0.74456269 -0.28698891 0.20371543 0.82355094
0.3365109 0.12537818 0.37361565 0.75482881 -0.30906716 0.19199926 0.83794552
0.34161279 0.12239353 0.37522423 0.7564795 -0.29800802 0.18284984 0.83336914
0.048148744 0.13260408 0.37531394 0.66844088 -0.73932779 -0.0099245086 0.99675339
0.053412575 0.13665277 0.3748962 -0.044242948 -0.038222998 -0.0030059421 0.058544613
0.06015946 0.13899624 0.37136799 -0.036461383 -0.030846775 -0.0005570366 0.047762603
0.13937783 0.13000652 0.37090027 0.064538151 0.041967988 0.004036787 0.077089429
0.14854729 0.13154325 0.37437433 0.10172245 0.06029731 0.0057449704 0.11839015
0.1530209 0.13371611 0.37464035 0.10956311 0.063557088 0.010129661 0.12706766
0.16861375 0.13400109 0.37411469 0.16823864 0.081745565 0.04471308 0.19231702
0.17682986 0.13644946 0.37451571 0.20067762 0.087816775 0.061002582 0.22738647
0.1817217 0.13659015 0.37432003 0.23017041 0.091467023 0.072575219 0.25809261
0.19228204 0.13630515 0.37414274 0.28228647 0.09660697 0.072409436 0.30702066
0.20697907 0.13581309 0.37503898 0.35246661 0.093609661 0.079224966 0.37319174
0.2174312 0.13504843 0.37445927 0.41759682 0.087218851 0.048886403 0.4293997
0.22787377 0.13365121 0.37453216 0.47714311 0.067981482 0.05894642 0.485553
0.23695447 0.13187438 0.3746053 0.5402804 0.04062286 0.04966148 0.54407668
0.32664716 0.1351748 0.37340561 0.73197675 -0.29271385 0.23084795 0.82143909
0.33196521 0.13270842 0.37452525 0.73955417 -0.30358586 0.22139929 0.82953143
0.065236554 0.14579511 0.37267965 -0.022935718 -0.018656492 -0.0040969849 0.029847901
0.067468256 0.14765038 0.37352201 -0.02081582 -0.016825825 -0.0051543843 0.027257556
0.317821 0.15312 0.37036422 0.65324688 -0.35479593 0.34918323 0.8213042
0.32230398 0.14223747 0.37549126 0.70523864 -0.28993019 0.2726016 0.80977321
0.074101701 0.15320545 0.37239692 -0.0061320066 -0.0047447383 -0.010156243 0.012777453
