# .PCD v0.7 - Point Cloud Data file format
VERSION 0.7
FIELDS x y z rgba
SIZE 4 4 4 4
TYPE F F F U
COUNT 1 1 1 1
WIDTH 1120
HEIGHT 1
VIEWPOINT 0 0 0 1 0 0 0
POINTS 1120
DATA ascii
0.84374195 0.55476481 1.8730001 4291476664
0.85183334 0.55772668 1.8830001 4292068801
0.85542005 0.55772668 1.8830001 4291806142
0.86402476 0.56098473 1.8940001 4287332218
0.87221336 0.56394672 1.904 4284108899
0.88596004 0.57046288 1.9260001 4281871937
0.88962859 0.57046288 1.9260001 4282138691
0.8932972 0.57046288 1.9260001 4282533449
0.90162289 0.57342476 1.9360001 4283188551
0.90063435 0.57046288 1.9260001 4288320405
0.9043029 0.57046288 1.9260001 4288976548
0.90278578 0.56720477 1.9150001 4288121239
0.9012267 0.56394672 1.904 4286741353
0.89487338 0.55772668 1.8830001 4283846461
0.88891715 0.55180287 1.863 4283521110
0.89246571 0.55180287 1.863 4283981661
1.0168144 0.58023715 1.9590001 4284175962
1.0205458 0.58023715 1.9590001 4280096796
1.0242772 0.58023715 1.9590001 4279307028
1.0280086 0.58023715 1.9590001 4280096544
1.0317401 0.58023715 1.9590001 4280162587
1.0354716 0.58023715 1.9590001 4280031001
1.0392029 0.58023715 1.9590001 4279833372
1.0429343 0.58023715 1.9590001 4279767579
1.0466657 0.58023715 1.9590001 4279701786
1.0503973 0.58023715 1.9590001 4279504407
1.0541286 0.58023715 1.9590001 4279438614
1.0638001 0.58349526 1.9700001 4279372821
1.0675524 0.58349526 1.9700001 4279111182
1.0713049 0.58349526 1.9700001 4279176975
1.0750571 0.58349526 1.9700001 4279438864
1.0788096 0.58349526 1.9700001 4279307278
1.082562 0.58349526 1.9700001 4279241235
1.0863144 0.58349526 1.9700001 4279241235
1.0961534 0.58675331 1.9810001 4279043856
1.1662334 0.61163336 2.0650001 4280752423
1.1701667 0.61163336 2.0650001 4281607732
-0.87928003 0.45191237 1.516 4285490025
-0.87639242 0.45191237 1.516 4285358437
-0.86947149 0.44982573 1.5090001 4285358437
-0.86659718 0.44982573 1.5090001 4285097062
-0.86372292 0.44982573 1.5090001 4285097062
-0.86084861 0.44982573 1.5090001 4285557365
-0.85797435 0.44982573 1.5090001 4285031021
-0.85170001 0.44803715 1.503 4285227630
-0.84883714 0.44803715 1.503 4285030251
-0.84935147 0.44982573 1.5090001 4284964456
-0.84647715 0.44982573 1.5090001 4284898663
-0.8436029 0.44982573 1.5090001 4284636511
-0.84462863 0.45191237 1.516 4284570718
-0.84174097 0.45191237 1.516 4284702808
-0.83885336 0.45191237 1.516 4284768601
-0.83596575 0.45191237 1.516 4285819492
-0.83307809 0.45191237 1.516 4285687906
-0.83019048 0.45191237 1.516 4285752945
-0.82730287 0.45191237 1.516 4285818738
-0.82441527 0.45191237 1.516 4285820017
-0.8215276 0.45191237 1.516 4285030501
-0.81863999 0.45191237 1.516 4284964456
-0.81575239 0.45191237 1.516 4284898663
-0.82358855 0.4578743 1.536 4285225827
-0.82066286 0.4578743 1.536 4285488999
-0.82146382 0.459961 1.5430001 4285554810
-0.81481141 0.4578743 1.536 4285357431
-0.81188571 0.4578743 1.536 4285096812
-0.80896002 0.4578743 1.536 4284899433
-0.80970764 0.459961 1.5430001 4284768601
-0.80310851 0.4578743 1.536 4284768601
-0.79653621 0.45578763 1.529 4284964958
-0.79362386 0.45578763 1.529 4285030751
-0.7907114 0.45578763 1.529 4285423980
-0.79140574 0.4578743 1.536 4285621359
-0.78847998 0.4578743 1.536 4285752945
-0.78555429 0.4578743 1.536 4285752945
-0.7826286 0.4578743 1.536 4285884531
-0.77970284 0.4578743 1.536 4285818738
-0.78031719 0.459961 1.5430001 4286345861
-0.77737814 0.459961 1.5430001 4286280068
-0.7744391 0.459961 1.5430001 4286607993
-0.77150005 0.459961 1.5430001 4285752684
-0.76856101 0.459961 1.5430001 4283650138
-0.76562196 0.459961 1.5430001 4279505179
-0.76614285 0.46204764 1.5500001 4278388992
-0.76319051 0.46204764 1.5500001 4278323200
-0.7671048 0.46622097 1.5640001 4278847240
-0.76803434 0.46860573 1.572 4278847240
-0.76844674 0.47069243 1.5790001 4278978576
-0.76543909 0.47069243 1.5790001 4279110162
-0.76243144 0.47069243 1.5790001 4278453779
-0.72333246 0.47069243 1.5790001 4285686884
-0.71713144 0.46860573 1.572 4284899683
-0.71050292 0.46622097 1.5640001 4283386444
-0.70752388 0.46622097 1.5640001 4282202699
-0.70454478 0.46622097 1.5640001 4282136906
-0.70156574 0.46622097 1.5640001 4281545550
-0.6985867 0.46622097 1.5640001 4280953413
-0.6991657 0.46860573 1.572 4281805858
-0.69617146 0.46860573 1.572 4284634957
-0.69317716 0.46860573 1.572 4285816930
-0.69018286 0.46860573 1.572 4285751137
-0.68718863 0.46860573 1.572 4285687654
-0.68419427 0.46860573 1.572 4285753447
-0.67469996 0.46413428 1.557 4286279030
-0.66871428 0.46204764 1.5500001 4285884272
-0.66576195 0.46204764 1.5500001 4285555816
-0.66280955 0.46204764 1.5500001 4285621609
-0.65985715 0.46204764 1.5500001 4285950574
-0.65690482 0.46204764 1.5500001 4285292644
-0.65395242 0.46204764 1.5500001 4285489003
-0.65100002 0.46204764 1.5500001 4284370522
-0.65724576 0.46860573 1.572 4284370511
-0.6542514 0.46860573 1.572 4284436304
-0.65125716 0.46860573 1.572 4283846981
-0.64826286 0.46860573 1.572 4283912774
-0.64814198 0.47069243 1.5790001 4284437085
-0.64227426 0.46860573 1.572 4285555566
-0.63928002 0.46860573 1.572 4285816953
-0.63628572 0.46860573 1.572 4285685367
-0.63329142 0.46860573 1.572 4285423206
-0.63310385 0.47069243 1.5790001 4285423206
-0.63009626 0.47069243 1.5790001 4285292394
-0.62708861 0.47069243 1.5790001 4284897636
-0.62684768 0.47277907 1.5860001 4285160288
-0.62382668 0.47277907 1.5860001 4285555046
-0.62393719 0.47516382 1.5940001 4285883761
-0.62090099 0.47516382 1.5940001 4285817968
-0.62057817 0.47725052 1.6010001 4285949541
-0.61482865 0.47516382 1.5940001 4286212713
-0.61179239 0.47516382 1.5940001 4286476148
-0.60875618 0.47516382 1.5940001 4286081390
-0.60572004 0.47516382 1.5940001 4285819490
-0.60533053 0.47725052 1.6010001 4285556318
-0.5996477 0.47516382 1.5940001 4285687152
-0.59361714 0.47277907 1.5860001 4285489773
-0.5905962 0.47277907 1.5860001 4285751398
-0.58757526 0.47277907 1.5860001 4286277742
-0.59303147 0.47963527 1.6090001 4286279532
-0.58996671 0.47963527 1.6090001 4285950567
-0.58398384 0.47725052 1.6010001 4286212976
-0.58093429 0.47725052 1.6010001 4286212976
-0.57788479 0.47725052 1.6010001 4285884000
-0.57770765 0.47963527 1.6090001 4282068006
-0.5746429 0.47963527 1.6090001 4280096544
-0.57157815 0.47963527 1.6090001 4278517768
-0.57098669 0.48172191 1.6160001 4278519808
-0.57072002 0.48410666 1.6240001 4279177738
-0.57042289 0.48649147 1.6320001 4279768333
-0.52413529 0.47277907 1.5860001 4286212211
-0.52111435 0.47277907 1.5860001 4286278004
-0.51809335 0.47277907 1.5860001 4285950313
-0.51767051 0.47516382 1.5940001 4285884520
-0.51689428 0.47725052 1.6010001 4285951078
-0.51641238 0.47963527 1.6090001 4285161562
-0.51558101 0.48172191 1.6160001 4285095267
-0.51250285 0.48172191 1.6160001 4284503130
-0.50942475 0.48172191 1.6160001 4284502878
-0.50634664 0.48172191 1.6160001 4284371292
-0.5032686 0.48172191 1.6160001 4284306001
-0.49802384 0.47963527 1.6090001 4284569173
-0.49495909 0.47963527 1.6090001 4284765782
-0.49403429 0.48172191 1.6160001 4285094747
-0.49095622 0.48172191 1.6160001 4285292122
-0.49029338 0.48410666 1.6240001 4285226329
-0.48720002 0.48410666 1.6240001 4285160288
-0.48410666 0.48410666 1.6240001 4285160288
-0.48101336 0.48410666 1.6240001 4285356386
-0.47792 0.48410666 1.6240001 4285422179
-0.47482669 0.48410666 1.6240001 4285291361
-0.47173333 0.48410666 1.6240001 4285357154
-0.46864003 0.48410666 1.6240001 4285489492
-0.4655467 0.48410666 1.6240001 4284897355
-0.46473145 0.48649147 1.6320001 4284109399
-0.46162289 0.48649147 1.6320001 4281675058
-0.4585143 0.48649147 1.6320001 4282329899
-0.45735908 0.48857811 1.6390001 4282527278
-0.45423713 0.48857811 1.6390001 4282920233
-0.45111525 0.48857811 1.6390001 4283446577
-0.44799334 0.48857811 1.6390001 4284698699
-0.44297144 0.48649147 1.6320001 4284632906
-0.43986288 0.48649147 1.6320001 4284764751
-0.43862763 0.48857811 1.6390001 4285027923
-0.43550572 0.48857811 1.6390001 4285291095
-0.43449432 0.49096289 1.6470001 4285291095
-0.43135715 0.49096289 1.6470001 4285291613
-0.42614001 0.48857811 1.6390001 4285225820
-0.4230181 0.48857811 1.6390001 4285356888
-0.41989622 0.48857811 1.6390001 4285356888
-0.4149943 0.48649147 1.6320001 4284635993
-0.41188571 0.48649147 1.6320001 4282727996
-0.40877718 0.48649147 1.6320001 4282135600
-0.40566859 0.48649147 1.6320001 4282135600
-0.40256003 0.48649147 1.6320001 4280820267
-0.40116477 0.48857811 1.6390001 4281346611
-0.39998573 0.49096289 1.6470001 4282069287
-0.3987762 0.49334762 1.6550001 4284503628
-0.39562383 0.49334762 1.6550001 4285161040
-0.39247146 0.49334762 1.6550001 4285029454
-0.38931906 0.49334762 1.6550001 4285160790
-0.38430002 0.49096289 1.6470001 4285687134
-0.38116285 0.49096289 1.6470001 4285819492
-0.37986192 0.49334762 1.6550001 4283911495
-0.37670952 0.49334762 1.6550001 4283317809
-0.37355715 0.49334762 1.6550001 4279370240
-0.37040478 0.49334762 1.6550001 4281404938
-0.36725241 0.49334762 1.6550001 4285089346
-0.36410001 0.49334762 1.6550001 4285224010
-0.36094764 0.49334762 1.6550001 4285092424
-0.34612095 0.47725052 1.6010001 4286604120
-0.34307143 0.47725052 1.6010001 4286998878
-0.34002191 0.47725052 1.6010001 4287921007
-0.33697239 0.47725052 1.6010001 4287592042
-0.33246288 0.47516382 1.5940001 4287790968
-0.32942668 0.47516382 1.5940001 4287988347
-0.32782382 0.47725052 1.6010001 4288185735
-0.3247743 0.47725052 1.6010001 4288514700
-0.3203181 0.47516382 1.5940001 4288778651
-0.31728193 0.47516382 1.5940001 4288647065
-0.31562573 0.47725052 1.6010001 4288843683
-0.31413811 0.47963527 1.6090001 4288580511
-0.31242666 0.48172191 1.6160001 4288840862
-0.30934858 0.48172191 1.6160001 4289696171
-0.30627048 0.48172191 1.6160001 4289960626
-0.30319241 0.48172191 1.6160001 4289960626
-0.29602858 0.47516382 1.5940001 4289831089
-0.29299241 0.47516382 1.5940001 4289962675
-0.28995618 0.47516382 1.5940001 4289765557
-0.28548002 0.47277907 1.5860001 4288581283
-0.28245905 0.47277907 1.5860001 4288121243
-0.28084764 0.47516382 1.5940001 4286673797
-0.27781144 0.47516382 1.5940001 4286476398
-0.27477524 0.47516382 1.5940001 4286344812
-0.2877638 0.5031848 1.6880001 4286672221
-0.28454858 0.5031848 1.6880001 4288251253
-0.28133336 0.5031848 1.6880001 4288252818
-0.2781181 0.5031848 1.6880001 4287660681
-0.26073432 0.47725052 1.6010001 4288513162
-0.25655812 0.47516382 1.5940001 4289894815
-0.25590762 0.47963527 1.6090001 4290290602
-0.25284287 0.47963527 1.6090001 4289895844
-0.25940287 0.49811715 1.6710001 4289568680
-0.25622001 0.49811715 1.6710001 4290160817
-0.25303715 0.49811715 1.6710001 4290621403
-0.25120002 0.50080001 1.6800001 4286213272
-0.24800003 0.50080001 1.6800001 4285818970
-0.2448 0.50080001 1.6800001 4286147935
-0.24030572 0.49811715 1.6710001 4285096312
-0.23712288 0.49811715 1.6710001 4285359484
-0.23394002 0.49811715 1.6710001 4285883500
-0.23075715 0.49811715 1.6710001 4285883500
-0.22988954 0.5031848 1.6880001 4286080102
-0.22667429 0.5031848 1.6880001 4286014309
-0.22345906 0.5031848 1.6880001 4285949543
-0.22024381 0.5031848 1.6880001 4285620578
-0.21600001 0.50080001 1.6800001 4285424482
-0.2128 0.50080001 1.6800001 4285556068
-0.2096 0.50080001 1.6800001 4285357933
-0.20639999 0.50080001 1.6800001 4285292140
-0.20320001 0.50080001 1.6800001 4284372821
-0.2009524 0.5031848 1.6880001 4284307028
-0.19867431 0.50556952 1.6960001 4284307032
-0.19452192 0.5031848 1.6880001 4284307032
-0.19130668 0.5031848 1.6880001 4284503128
-0.18809143 0.5031848 1.6880001 4284503128
-0.18400002 0.50080001 1.6800001 4284241239
-0.18080001 0.50080001 1.6800001 4284504411
-0.17760001 0.50080001 1.6800001 4284241753
-0.17263524 0.49573243 1.6630001 4281412654
-0.16946763 0.49573243 1.6630001 4280161544
-0.13790572 0.46413428 1.557 4280492322
-0.13494 0.46413428 1.557 4284702792
-0.13197428 0.46413428 1.557 4284505413
-0.12900858 0.46413428 1.557 4282926656
-0.12604286 0.46413428 1.557 4282926656
-0.12307715 0.46413428 1.557 4283450701
-0.12011143 0.46413428 1.557 4283384908
-0.11714572 0.46413428 1.557 4283188801
-0.11418 0.46413428 1.557 4283188801
-0.11121429 0.46413428 1.557 4283188551
-0.10824858 0.46413428 1.557 4283122758
-0.10528286 0.46413428 1.557 4283122758
-0.10231715 0.46413428 1.557 4283122758
-0.099351428 0.46413428 1.557 4283188047
-0.096385717 0.46413428 1.557 4283188047
-0.093419999 0.46413428 1.557 4283188047
-0.090454288 0.46413428 1.557 4283188047
-0.087095238 0.46204764 1.5500001 4283318863
-0.084142864 0.46204764 1.5500001 4283516242
-0.081190482 0.46204764 1.5500001 4283385428
-0.078238092 0.46204764 1.5500001 4283648600
-0.075285718 0.46204764 1.5500001 4283453270
-0.072333336 0.46204764 1.5500001 4282532168
-0.069380954 0.46204764 1.5500001 4282729025
-0.066428572 0.46204764 1.5500001 4282860611
-0.06347619 0.46204764 1.5500001 4282728271
-0.060523812 0.46204764 1.5500001 4283254615
-0.057831433 0.46413428 1.557 4283321171
-0.054619048 0.46204764 1.5500001 4283321171
-0.05166667 0.46204764 1.5500001 4283517780
-0.048714288 0.46204764 1.5500001 4283517780
-0.045761906 0.46204764 1.5500001 4283846745
-0.043002855 0.46413428 1.557 4284241503
-0.040037144 0.46413428 1.557 4284505958
-0.037071429 0.46413428 1.557 4284374372
-0.034105714 0.46413428 1.557 4284309351
-0.031140001 0.46413428 1.557 4283980386
-0.028174285 0.46413428 1.557 4283649893
-0.025208572 0.46413428 1.557 4283649893
-0.022242859 0.46413428 1.557 4283781204
-0.019277144 0.46413428 1.557 4283846997
-0.016384764 0.46622097 1.5640001 4284241239
-0.013474287 0.46860573 1.572 4284504411
-0.010573333 0.47277907 1.5860001 4284307028
-0.0075523811 0.47277907 1.5860001 4282596410
-0.0045314287 0.47277907 1.5860001 4282726208
0.0015838096 0.49573243 1.6630001 4284437315
0.004751429 0.49573243 1.6630001 4284634694
0.0081190476 0.50825244 1.705 4284897116
0.011366667 0.50825244 1.705 4285094495
0.014682857 0.51063716 1.7130001 4285028968
0.018040001 0.51332003 1.7220001 4285094761
0.021431429 0.51600289 1.7310001 4287130464
0.024842858 0.51838762 1.7390001 4288577910
0.53236377 0.61944193 2.0780001 4285291865
0.53296667 0.61556667 2.0650001 4288384136
0.53689998 0.61556667 2.0650001 4288384665
0.54423809 0.61944193 2.0780001 4286081910
0.5481962 0.61944193 2.0780001 4283387214
0.5521543 0.61944193 2.0780001 4278913290
0.55611241 0.61944193 2.0780001 4278519808
0.56007051 0.61944193 2.0780001 4279375117
0.57081431 0.62689435 2.1030002 4279900448
0.57482004 0.62689435 2.1030002 4278781967
0.50726384 0.54938954 1.8430001 4278518536
0.51077425 0.54938954 1.8430001 4284110941
0.51986569 0.55535144 1.863 4286215011
0.52903336 0.56131333 1.8830001 4285951839
0.52979147 0.55833238 1.8730001 4286080583
0.53051144 0.55535144 1.863 4287396443
0.52546 0.54640859 1.8330001 4289960060
0.52895147 0.54640859 1.8330001 4290946955
0.53244287 0.54640859 1.8330001 4291014314
0.53301048 0.54342759 1.8230001 4289830040
0.53648287 0.54342759 1.8230001 4289633165
0.53995526 0.54342759 1.8230001 4291541162
0.54342759 0.54342759 1.8230001 4290820535
0.54689997 0.54342759 1.8230001 4288912538
0.54735333 0.5404467 1.8130001 4288714380
0.5508067 0.5404467 1.8130001 4288977552
0.55426002 0.5404467 1.8130001 4289107574
0.55494475 0.53776383 1.8040001 4289304953
0.55838102 0.53776383 1.8040001 4289896848
0.56462002 0.5404467 1.8130001 4290225813
0.56807339 0.5404467 1.8130001 4289963920
0.57152671 0.5404467 1.8130001 4289963920
0.57498002 0.5404467 1.8130001 4289963679
0.57843339 0.5404467 1.8130001 4290095265
0.58188665 0.5404467 1.8130001 4290095515
0.58534002 0.5404467 1.8130001 4290292894
0.58879334 0.5404467 1.8130001 4290358946
0.59224665 0.5404467 1.8130001 4290490532
0.59570003 0.5404467 1.8130001 4290358687
0.59915334 0.5404467 1.8130001 4290358687
0.60593051 0.54342759 1.8230001 4290293414
0.60940289 0.54342759 1.8230001 4290293414
0.61287528 0.54342759 1.8230001 4290097298
0.61634767 0.54342759 1.8230001 4289373575
0.61982 0.54342759 1.8230001 4288846486
0.62329239 0.54342759 1.8230001 4288517521
0.62676477 0.54342759 1.8230001 4288516483
0.62678003 0.5404467 1.8130001 4288516483
0.63023341 0.5404467 1.8130001 4288121995
0.63368666 0.5404467 1.8130001 4287595651
0.63397717 0.53776383 1.8040001 4287201643
0.63741338 0.53776383 1.8040001 4282596133
0.64084953 0.53776383 1.8040001 4279698432
0.64428574 0.53776383 1.8040001 4282593321
0.64413142 0.53478289 1.794 4285947465
0.64754862 0.53478289 1.794 4287592290
0.65096575 0.53478289 1.794 4288645257
0.65438282 0.53478289 1.794 4287460983
0.65780002 0.53478289 1.794 4283848530
0.66121715 0.53478289 1.794 4280493087
0.66130006 0.53210002 1.7850001 4282993664
0.66470003 0.53210002 1.7850001 4291809925
0.6647315 0.52941722 1.7760001 4293583080
0.66435236 0.52643621 1.766 4294966015
0.66431338 0.52375335 1.7570001 4294901754
0.66766 0.52375335 1.7570001 4294901754
0.66756952 0.52107048 1.748 4294835709
0.67089909 0.52107048 1.748 4294769916
0.67422855 0.52107048 1.748 4294769916
0.67755812 0.52107048 1.748 4294769916
0.68088764 0.52107048 1.748 4294769916
0.68421715 0.52107048 1.748 4294769916
0.68400669 0.51838762 1.7390001 4294769916
0.68415719 0.51600289 1.7310001 4294769916
0.68745428 0.51600289 1.7310001 4294769916
0.69075143 0.51600289 1.7310001 4294769916
0.69404858 0.51600289 1.7310001 4294769916
0.69734573 0.51600289 1.7310001 4294769916
0.70388097 0.51838762 1.7390001 4294769916
0.70394003 0.51600289 1.7310001 4294769916
0.70723712 0.51600289 1.7310001 4294769916
0.71053433 0.51600289 1.7310001 4294769916
0.71383142 0.51600289 1.7310001 4294769916
0.71340007 0.51332003 1.7220001 4294769916
0.71668005 0.51332003 1.7220001 4294769916
0.71996003 0.51332003 1.7220001 4294769916
0.72324002 0.51332003 1.7220001 4294769916
0.72652006 0.51332003 1.7220001 4294769916
0.72980005 0.51332003 1.7220001 4294769916
0.72584283 0.50825244 1.705 4294769916
0.72909051 0.50825244 1.705 4294835709
0.7250362 0.5031848 1.6880001 4294901502
0.71401429 0.49334762 1.6550001 4294901502
0.7137 0.49096289 1.6470001 4294901502
0.71683717 0.49096289 1.6470001 4294901502
0.71647716 0.48857811 1.6390001 4293388263
0.71652573 0.48649147 1.6320001 4292006358
0.71963429 0.48649147 1.6320001 4291216842
0.71920002 0.48410666 1.6240001 4290755782
0.72229332 0.48410666 1.6240001 4290821575
0.83214003 0.55535144 1.863 4291016642
0.84017432 0.55833238 1.8730001 4291016642
0.84374195 0.55833238 1.8730001 4291148462
0.85183334 0.56131333 1.8830001 4291937978
0.85542005 0.56131333 1.8830001 4291871935
0.86402476 0.56459242 1.8940001 4287134839
0.87221336 0.56757337 1.904 4284370518
0.88596004 0.57413143 1.9260001 4281936177
0.88962859 0.57413143 1.9260001 4281809431
0.8932972 0.57413143 1.9260001 4282730533
0.90162289 0.57711238 1.9360001 4283255387
0.90063435 0.57413143 1.9260001 4288584620
0.9043029 0.57413143 1.9260001 4289307062
0.90278578 0.5708524 1.9150001 4287399065
0.9012267 0.56757337 1.904 4285229670
0.89487338 0.56131333 1.8830001 4283584845
0.88891715 0.55535144 1.863 4283258694
0.89246571 0.55535144 1.863 4284114003
1.0105858 0.58039147 1.9470001 4284045144
1.0142943 0.58039147 1.9470001 4279834392
1.0180029 0.58039147 1.9470001 4279570200
1.0280086 0.58396864 1.9590001 4280030751
1.0317401 0.58396864 1.9590001 4279833372
1.0354716 0.58396864 1.9590001 4279833372
1.0392029 0.58396864 1.9590001 4279570979
1.0429343 0.58396864 1.9590001 4279505186
1.0402544 0.58039147 1.9470001 4279570202
1.043963 0.58039147 1.9470001 4279372823
1.0476714 0.58039147 1.9470001 4279438614
1.05786 0.58396864 1.9590001 4279372821
1.0675524 0.58724767 1.9700001 4279045139
1.0713049 0.58724767 1.9700001 4279110932
1.0750571 0.58724767 1.9700001 4279110932
1.0788096 0.58724767 1.9700001 4279110932
1.082562 0.58724767 1.9700001 4279241235
1.0863144 0.58724767 1.9700001 4279043856
-0.88216764 0.45480001 1.516 4285424759
-0.87522 0.45270002 1.5090001 4285424759
-0.87234575 0.45270002 1.5090001 4285228134
-0.8660143 0.45089999 1.503 4285228134
-0.86315143 0.45089999 1.503 4284965476
-0.85628188 0.44880003 1.4960001 4284439132
-0.85343236 0.44880003 1.4960001 4284307818
-0.8505829 0.44880003 1.4960001 4283518302
-0.84773338 0.44880003 1.4960001 4283452005
-0.84488386 0.44880003 1.4960001 4283386212
-0.84597427 0.45089999 1.503 4283123535
-0.84311146 0.45089999 1.503 4282399812
-0.84024853 0.45089999 1.503 4282202431
-0.84072858 0.45270002 1.5090001 4283123533
-0.83785427 0.45270002 1.5090001 4284570706
-0.83498007 0.45270002 1.5090001 4284833878
-0.83210576 0.45270002 1.5090001 4285031003
-0.8292315 0.45270002 1.5090001 4285031003
-0.82635719 0.45270002 1.5090001 4285292896
-0.82348287 0.45270002 1.5090001 4285095517
-0.82060862 0.45270002 1.5090001 4285030501
-0.8177343 0.45270002 1.5090001 4284833122
-0.81486005 0.45270002 1.5090001 4284833122
-0.81198573 0.45270002 1.5090001 4284767329
-0.82358855 0.46079999 1.536 4285028961
-0.82066286 0.46079999 1.536 4284831582
-0.82146382 0.46290004 1.5430001 4284634991
-0.8110981 0.4587 1.529 4284503405
-0.80818576 0.4587 1.529 4284899169
-0.80527335 0.4587 1.529 4284899169
-0.80236095 0.4587 1.529 4284702292
-0.79944861 0.4587 1.529 4284768085
-0.79341054 0.45690003 1.5230001 4285029472
-0.79050958 0.45690003 1.5230001 4285095265
-0.7907114 0.4587 1.529 4285358689
-0.78779906 0.4587 1.529 4285424482
-0.78488672 0.4587 1.529 4285424230
-0.78197426 0.4587 1.529 4285424230
-0.77906191 0.4587 1.529 4285819492
-0.77614957 0.4587 1.529 4285622113
-0.77677715 0.46079999 1.536 4285358966
-0.77385145 0.46079999 1.536 4284306278
-0.7709257 0.46079999 1.536 4282923103
-0.76800001 0.46079999 1.536 4280094004
-0.76507425 0.46079999 1.536 4278650112
-0.76214856 0.46079999 1.536 4278452736
-0.76268291 0.46290004 1.5430001 4278781974
-0.76319051 0.46500003 1.5500001 4278913560
-0.7671048 0.46920002 1.5640001 4278912781
-0.77145433 0.47370005 1.5790001 4278978574
-0.72333246 0.47370005 1.5790001 4285358941
-0.71028858 0.46710002 1.557 4285031003
-0.70414287 0.46500003 1.5500001 4284636245
-0.70119053 0.46500003 1.5500001 4283978853
-0.69823813 0.46500003 1.5500001 4283913060
-0.69842577 0.46710002 1.557 4284241505
-0.69546002 0.46710002 1.557 4284307298
-0.69249427 0.46710002 1.557 4284897888
-0.68952858 0.46710002 1.557 4285621611
-0.68656284 0.46710002 1.557 4285489505
-0.68359715 0.46710002 1.557 4285292126
-0.67757142 0.46500003 1.5500001 4285621861
-0.67461908 0.46500003 1.5500001 4285621861
-0.67166674 0.46500003 1.5500001 4285885285
-0.66871428 0.46500003 1.5500001 4285490527
-0.66275531 0.46290004 1.5430001 4285490023
-0.65981627 0.46290004 1.5430001 4285292644
-0.65985715 0.46500003 1.5500001 4285424230
-0.65690482 0.46500003 1.5500001 4285226851
-0.65395242 0.46500003 1.5500001 4284964456
-0.65100002 0.46500003 1.5500001 4282398529
-0.65097427 0.46710002 1.557 4282265914
-0.64800858 0.46710002 1.557 4282463293
-0.6479429 0.46920002 1.5640001 4284305455
-0.64496386 0.46920002 1.5640001 4284700213
-0.64198482 0.46920002 1.5640001 4285751912
-0.63900578 0.46920002 1.5640001 4286673014
-0.63317996 0.46710002 1.557 4286803596
-0.63021433 0.46710002 1.557 4286408838
-0.63006866 0.46920002 1.5640001 4285950313
-0.62708956 0.46920002 1.5640001 4285292383
-0.62411052 0.46920002 1.5640001 4285292394
-0.62113148 0.46920002 1.5640001 4284897636
-0.61815244 0.46920002 1.5640001 4285095015
-0.6151734 0.46920002 1.5640001 4285358187
-0.61532575 0.47160003 1.572 4285620589
-0.61505812 0.47370005 1.5790001 4284502108
-0.61205053 0.47370005 1.5790001 4283320119
-0.60904288 0.47370005 1.5790001 4281872673
-0.60603529 0.47370005 1.5790001 4281871676
-0.60302764 0.47370005 1.5790001 4281411125
-0.60002005 0.47370005 1.5790001 4281871901
-0.59965909 0.47580001 1.5860001 4284174656
-0.59663814 0.47580001 1.5860001 4285555305
-0.59099722 0.47370005 1.5790001 4285423719
-0.58798957 0.47370005 1.5790001 4285423460
-0.58498192 0.47370005 1.5790001 4285489253
-0.58197433 0.47370005 1.5790001 4285687134
-0.58153337 0.47580001 1.5860001 4285752927
-0.57851243 0.47580001 1.5860001 4285620085
-0.57549149 0.47580001 1.5860001 4283251537
-0.57535815 0.47820005 1.5940001 4280819200
-0.57483524 0.48030004 1.6010001 4278977024
-0.5746429 0.48270002 1.6090001 4278584338
-0.57157815 0.48270002 1.6090001 4278715924
-0.52715623 0.47580001 1.5860001 4287002467
-0.52413529 0.47580001 1.5860001 4286804348
-0.52111435 0.47580001 1.5860001 4286475383
-0.51809335 0.47580001 1.5860001 4286147942
-0.51507241 0.47580001 1.5860001 4285687391
-0.51463431 0.47820005 1.5940001 4285753697
-0.51641238 0.48270002 1.6090001 4285490525
-0.51334763 0.48270002 1.6090001 4285490025
-0.51028293 0.48270002 1.6090001 4285226853
-0.50721812 0.48270002 1.6090001 4284897382
-0.50415337 0.48270002 1.6090001 4284831589
-0.49859717 0.48030004 1.6010001 4284898388
-0.49554762 0.48030004 1.6010001 4285227353
-0.49249813 0.48030004 1.6010001 4285161560
-0.48944858 0.48030004 1.6010001 4285161560
-0.48639905 0.48030004 1.6010001 4285095517
-0.48334953 0.48030004 1.6010001 4285095517
-0.48030004 0.48030004 1.6010001 4285225827
-0.47963527 0.48270002 1.6090001 4285160034
-0.47657049 0.48270002 1.6090001 4285487972
-0.47350574 0.48270002 1.6090001 4285487972
-0.47248763 0.48480001 1.6160001 4285291874
-0.4673762 0.48270002 1.6090001 4285028702
-0.46431145 0.48270002 1.6090001 4285292878
-0.46124667 0.48270002 1.6090001 4284963913
-0.45818192 0.48270002 1.6090001 4284504411
-0.45709717 0.48480001 1.6160001 4283846481
-0.45401907 0.48480001 1.6160001 4283846477
-0.45094097 0.48480001 1.6160001 4283912270
-0.44786286 0.48480001 1.6160001 4284371292
-0.44478476 0.48480001 1.6160001 4284568671
-0.44170669 0.48480001 1.6160001 4284568403
-0.43862858 0.48480001 1.6160001 4284699989
-0.43555048 0.48480001 1.6160001 4284897618
-0.43461335 0.48720002 1.6240001 4285094997
-0.43152002 0.48720002 1.6240001 4285160027
-0.43053716 0.4896 1.6320001 4285160027
-0.42742857 0.4896 1.6320001 4285226081
-0.42432001 0.4896 1.6320001 4285226081
-0.42121145 0.4896 1.6320001 4285095767
-0.41810289 0.4896 1.6320001 4285095767
-0.4149943 0.4896 1.6320001 4284833878
-0.41188571 0.4896 1.6320001 4284110155
-0.40877718 0.4896 1.6320001 4284175694
-0.40566859 0.4896 1.6320001 4284307280
-0.40256003 0.4896 1.6320001 4284372044
-0.39945143 0.4896 1.6320001 4284306251
-0.39804286 0.49170002 1.6390001 4284569425
-0.39492097 0.49170002 1.6390001 4285029976
-0.39179906 0.49170002 1.6390001 4285292376
-0.38867715 0.49170002 1.6390001 4285292376
-0.38555524 0.49170002 1.6390001 4285357915
-0.38430002 0.49410003 1.6470001 4285818466
-0.38116285 0.49410003 1.6470001 4285556068
-0.37802574 0.49410003 1.6470001 4281805867
-0.3748886 0.49410003 1.6470001 4279963915
-0.37355715 0.49650002 1.6550001 4279108608
-0.37040478 0.49650002 1.6550001 4280616478
-0.36725241 0.49650002 1.6550001 4282853440
-0.36410001 0.49650002 1.6550001 4282459912
-0.36094764 0.49650002 1.6550001 4281933568
-0.34612095 0.48030004 1.6010001 4282194946
-0.34307143 0.48030004 1.6010001 4282392325
-0.34002191 0.48030004 1.6010001 4282063360
-0.33697239 0.48030004 1.6010001 4281537024
-0.33392286 0.48030004 1.6010001 4281077256
-0.33087334 0.48030004 1.6010001 4280879877
-0.32782382 0.48030004 1.6010001 4280486146
-0.3247743 0.48030004 1.6010001 4280551939
-0.3203181 0.47820005 1.5940001 4280420353
-0.31728193 0.47820005 1.5940001 4280157184
-0.31424573 0.47820005 1.5940001 4280486912
-0.3125762 0.48030004 1.6010001 4280750080
-0.30952668 0.48030004 1.6010001 4281403148
-0.30647716 0.48030004 1.6010001 4281468941
-0.30210099 0.47820005 1.5940001 4281469207
-0.29906476 0.47820005 1.5940001 4281600793
-0.29602858 0.47820005 1.5940001 4281867545
-0.29299241 0.47820005 1.5940001 4282788647
-0.28995618 0.47820005 1.5940001 4283118877
-0.28548002 0.47580001 1.5860001 4283645221
-0.28245905 0.47580001 1.5860001 4283449386
-0.28084764 0.47820005 1.5940001 4283449386
-0.27641714 0.47580001 1.5860001 4283777354
-0.27339619 0.47580001 1.5860001 4284961628
-0.27037525 0.47580001 1.5860001 4286279211
-0.26617432 0.47370005 1.5790001 4286805555
-0.26433334 0.47580001 1.5860001 4285355623
-0.26378384 0.48030004 1.6010001 4283908177
-0.26073432 0.48030004 1.6010001 4284499033
-0.25655812 0.47820005 1.5940001 4285683307
-0.25590762 0.48270002 1.6090001 4286539861
-0.25284287 0.48270002 1.6090001 4286803033
-0.24977812 0.48270002 1.6090001 4288186191
-0.24671334 0.48270002 1.6090001 4289041500
-0.24592 0.48720002 1.6240001 4288319354
-0.24282669 0.48720002 1.6240001 4284634946
-0.24800003 0.50400001 1.6800001 4284962909
-0.2448 0.50400001 1.6800001 4287792008
-0.23800477 0.49650002 1.6550001 4287988124
-0.23485239 0.49650002 1.6550001 4287330194
-0.23170002 0.49650002 1.6550001 4286739061
-0.23075715 0.50130004 1.6710001 4285817959
-0.2275743 0.50130004 1.6710001 4285817957
-0.21499144 0.48030004 1.6010001 4285686371
-0.21300097 0.48270002 1.6090001 4285686884
-0.21293716 0.4896 1.6320001 4285686884
-0.20982857 0.4896 1.6320001 4285489253
-0.20672001 0.4896 1.6320001 4286344562
-0.20847715 0.50130004 1.6710001 4286542198
-0.2052943 0.50130004 1.6710001 4285489510
-0.20211144 0.50130004 1.6710001 4284306253
-0.19892858 0.50130004 1.6710001 4284174667
-0.19773714 0.50640005 1.6880001 4283978583
-0.19256286 0.50130004 1.6710001 4284110169
-0.18938001 0.50130004 1.6710001 4284372825
-0.18720001 0.50400001 1.6800001 4284372825
-0.18301429 0.50130004 1.6710001 4284306778
-0.17983145 0.50130004 1.6710001 4284569950
-0.17664859 0.50130004 1.6710001 4284569950
-0.17263524 0.49890003 1.6630001 4281214507
-0.16946763 0.49890003 1.6630001 4278913033
-0.13790572 0.46710002 1.557 4280295458
-0.13433333 0.46500003 1.5500001 4283387700
-0.13138096 0.46500003 1.5500001 4283256114
-0.12842858 0.46500003 1.5500001 4283253824
-0.1254762 0.46500003 1.5500001 4283319617
-0.12252381 0.46500003 1.5500001 4283319885
-0.11957143 0.46500003 1.5500001 4283319885
-0.11661905 0.46500003 1.5500001 4283253840
-0.11366667 0.46500003 1.5500001 4283122254
-0.11071429 0.46500003 1.5500001 4282992199
-0.1077619 0.46500003 1.5500001 4282860613
-0.10480952 0.46500003 1.5500001 4282729277
-0.10185715 0.46500003 1.5500001 4282729277
-0.098904766 0.46500003 1.5500001 4283055950
-0.095952384 0.46500003 1.5500001 4282990157
-0.093000002 0.46500003 1.5500001 4282728775
-0.09004762 0.46500003 1.5500001 4282926154
-0.086701907 0.46290004 1.5430001 4283385426
-0.083762862 0.46290004 1.5430001 4283582805
-0.080823816 0.46290004 1.5430001 4283451221
-0.077884771 0.46290004 1.5430001 4283451221
-0.074945718 0.46290004 1.5430001 4283189328
-0.072006665 0.46290004 1.5430001 4282202433
-0.06906762 0.46290004 1.5430001 4282400562
-0.066128574 0.46290004 1.5430001 4282861113
-0.063189529 0.46290004 1.5430001 4283187790
-0.06025048 0.46290004 1.5430001 4283385169
-0.057571433 0.46500003 1.5500001 4283321423
-0.054372385 0.46290004 1.5430001 4283321423
-0.051433336 0.46290004 1.5430001 4283386964
-0.048494287 0.46290004 1.5430001 4283321171
-0.045555241 0.46290004 1.5430001 4283715159
-0.042809524 0.46500003 1.5500001 4283846745
-0.039677147 0.46290004 1.5430001 4283716181
-0.036738094 0.46290004 1.5430001 4283387216
-0.033799049 0.46290004 1.5430001 4283189328
-0.031000003 0.46500003 1.5500001 4282926156
-0.028047619 0.46500003 1.5500001 4283122520
-0.025095237 0.46500003 1.5500001 4283188313
-0.022142859 0.46500003 1.5500001 4283319635
-0.019190477 0.46500003 1.5500001 4283714393
-0.016311429 0.46710002 1.557 4284044626
-0.013345715 0.46710002 1.557 4284242005
-0.010426668 0.46920002 1.5640001 4284110671
-0.0074857143 0.47160003 1.572 4282926397
-0.004511429 0.47370005 1.5790001 4282923085
-0.0015038096 0.47370005 1.5790001 4282396741
0.0015838096 0.49890003 1.6630001 4283911451
0.004751429 0.49890003 1.6630001 4284635174
0.0080000004 0.50400001 1.6800001 4285160536
0.011366667 0.5115 1.705 4285094743
0.014614286 0.5115 1.705 4285029222
0.017861906 0.5115 1.705 4285029222
0.021320002 0.51660007 1.7220001 4286867547
0.024600001 0.51660007 1.7220001 4288775544
0.53296667 0.61950004 2.0650001 4288120982
0.53689998 0.61950004 2.0650001 4288253068
0.54423809 0.62339997 2.0780001 4287134587
0.5481962 0.62339997 2.0780001 4284439384
0.5521543 0.62339997 2.0780001 4279439116
0.55611241 0.62339997 2.0780001 4278190852
0.56007051 0.62339997 2.0780001 4278783246
0.56728572 0.62700003 2.0900002 4279635489
0.57126665 0.62700003 2.0900002 4278845973
0.51276857 0.5589 1.863 4278584077
0.51631713 0.5589 1.863 4284044896
0.52544671 0.56490004 1.8830001 4286477427
0.53212386 0.56820005 1.8940001 4286806392
0.53262001 0.56490004 1.8830001 4286345064
0.53620666 0.56490004 1.8830001 4285621341
0.53692675 0.56190002 1.8730001 4287593545
0.53472286 0.55589998 1.853 4290554230
0.53244287 0.5499 1.8330001 4291409324
0.53593427 0.5499 1.8330001 4292067254
0.53648287 0.54689997 1.8230001 4290685601
0.53995526 0.54689997 1.8230001 4290619808
0.54342759 0.54689997 1.8230001 4290358176
0.54689997 0.54689997 1.8230001 4289239695
0.54735333 0.54390001 1.8130001 4290357889
0.5508067 0.54390001 1.8130001 4291213198
0.55426002 0.54390001 1.8130001 4291081133
0.55494475 0.54120004 1.8040001 4290817961
0.55838102 0.54120004 1.8040001 4290752670
0.56462002 0.54390001 1.8130001 4290884256
0.56807339 0.54390001 1.8130001 4290555807
0.57152671 0.54390001 1.8130001 4290358428
0.57498002 0.54390001 1.8130001 4290423976
0.57843339 0.54390001 1.8130001 4290423976
0.58188665 0.54390001 1.8130001 4290161315
0.58534002 0.54390001 1.8130001 4290292901
0.58879334 0.54390001 1.8130001 4290292901
0.59551334 0.54689997 1.8230001 4290227108
0.59898573 0.54689997 1.8230001 4290030242
0.60245812 0.54689997 1.8230001 4290030242
0.60593051 0.54689997 1.8230001 4289965221
0.60940289 0.54689997 1.8230001 4289899428
0.61287528 0.54689997 1.8230001 4289834126
0.61634767 0.54689997 1.8230001 4289044610
0.61982 0.54689997 1.8230001 4288780693
0.61987334 0.54390001 1.8130001 4288846486
0.62332672 0.54390001 1.8130001 4288648587
0.62678003 0.54390001 1.8130001 4288714380
0.63023341 0.54390001 1.8130001 4288451973
0.63368666 0.54390001 1.8130001 4287333492
0.63713998 0.54390001 1.8130001 4287070577
0.64059335 0.54390001 1.8130001 4284307271
0.64404666 0.54390001 1.8130001 4283055430
0.64428574 0.54120004 1.8040001 4283055430
0.64772195 0.54120004 1.8040001 4283118915
0.65115815 0.54120004 1.8040001 4281539883
0.6545943 0.54120004 1.8040001 4282854176
0.65803051 0.54120004 1.8040001 4283577899
0.65780002 0.53819996 1.794 4282860361
0.66121715 0.53819996 1.794 4284899944
0.66130006 0.53549999 1.7850001 4286872473
0.66470003 0.53549999 1.7850001 4292135913
0.6647315 0.53280008 1.7760001 4293451462
0.66435236 0.52980006 1.766 4293648841
0.66431338 0.52710003 1.7570001 4294307809
0.66766 0.52710003 1.7570001 4294967024
0.66756952 0.5244 1.748 4294901502
0.67089909 0.5244 1.748 4294769916
0.67422855 0.5244 1.748 4294769916
0.67755812 0.5244 1.748 4294769916
0.68088764 0.5244 1.748 4294769916
0.68069428 0.52170002 1.7390001 4294769916
0.68400669 0.52170002 1.7390001 4294769916
0.68415719 0.51929998 1.7310001 4294769916
0.68745428 0.51929998 1.7310001 4294769916
0.69075143 0.51929998 1.7310001 4294769916
0.69404858 0.51929998 1.7310001 4294769916
0.69734573 0.51929998 1.7310001 4294769916
0.70064288 0.51929998 1.7310001 4294769916
0.70394003 0.51929998 1.7310001 4294769916
0.70723712 0.51929998 1.7310001 4294769916
0.70684004 0.51660007 1.7220001 4294769916
0.71012002 0.51660007 1.7220001 4294769916
0.70967144 0.51390004 1.7130001 4294769916
0.71293432 0.51390004 1.7130001 4294769916
0.71619713 0.51390004 1.7130001 4294769916
0.71946001 0.51390004 1.7130001 4294769916
0.72272283 0.51390004 1.7130001 4294769916
0.72598577 0.51390004 1.7130001 4294769916
0.72201151 0.50880003 1.6960001 4294769916
0.72182101 0.50640005 1.6880001 4294769916
0.72160006 0.50400001 1.6800001 4294769916
0.71401429 0.49650002 1.6550001 4294835709
0.7137 0.49410003 1.6470001 4294901502
0.71683717 0.49410003 1.6470001 4294901502
0.71647716 0.49170002 1.6390001 4294901502
0.71652573 0.4896 1.6320001 4294901502
0.71963429 0.4896 1.6320001 4294901502
0.71920002 0.48720002 1.6240001 4294901502
0.72229332 0.48720002 1.6240001 4294835709
0.73208672 0.49170002 1.6390001 4293913574
0.84017432 0.56190002 1.8730001 4290952889
0.84374195 0.56190002 1.8730001 4290886303
0.85183334 0.56490004 1.8830001 4291741612
0.85542005 0.56490004 1.8830001 4291740349
0.86402476 0.56820005 1.8940001 4286740081
0.87221336 0.57120001 1.904 4283252316
0.88596004 0.57780004 1.9260001 4280357424
0.88962859 0.57780004 1.9260001 4280035877
0.8932972 0.57780004 1.9260001 4282141253
0.90162289 0.5808 1.9360001 4284173451
0.90531051 0.5808 1.9360001 4289634270
0.9043029 0.57780004 1.9260001 4289635225
0.90278578 0.57450002 1.9150001 4286806126
0.9012267 0.57120001 1.904 4284307823
0.89487338 0.56490004 1.8830001 4284044651
0.89846003 0.56490004 1.8830001 4284314196
1.0105858 0.58410007 1.9470001 4283978833
1.0142943 0.58410007 1.9470001 4279833874
1.0180029 0.58410007 1.9470001 4279372821
1.0280086 0.58770001 1.9590001 4280030751
1.0317401 0.58770001 1.9590001 4279701786
1.0354716 0.58770001 1.9590001 4279701786
1.0392029 0.58770001 1.9590001 4279439393
1.0429343 0.58770001 1.9590001 4279307807
1.0402544 0.58410007 1.9470001 4279308311
1.043963 0.58410007 1.9470001 4279176725
1.0476714 0.58410007 1.9470001 4279242518
1.05786 0.58770001 1.9590001 4279110932
1.0675524 0.59100002 1.9700001 4279045139
1.0713049 0.59100002 1.9700001 4279045139
1.0750571 0.59100002 1.9700001 4279045139
1.0788096 0.59100002 1.9700001 4279045139
1.082562 0.59100002 1.9700001 4278979596
1.0863144 0.59100002 1.9700001 4278782217
-0.87809432 0.4555743 1.5090001 4285622386
-0.87174004 0.45376286 1.503 4285359214
-0.86887711 0.45376286 1.503 4285162857
-0.8660143 0.45376286 1.503 4284965478
-0.85913146 0.45164955 1.4960001 4284899685
-0.85227525 0.4495362 1.4890001 4284439134
-0.84943908 0.4495362 1.4890001 4284110689
-0.84660292 0.4495362 1.4890001 4283321173
-0.84773338 0.45164955 1.4960001 4282859870
-0.84488386 0.45164955 1.4960001 4282794077
-0.84203434 0.45164955 1.4960001 4282598231
-0.83918482 0.45164955 1.4960001 4281611336
-0.84024853 0.45376286 1.503 4281215788
-0.83738571 0.45376286 1.503 4283123785
-0.83785427 0.4555743 1.5090001 4284766804
-0.83498007 0.4555743 1.5090001 4284964183
-0.83210576 0.4555743 1.5090001 4284899169
-0.8292315 0.4555743 1.5090001 4284899169
-0.82307148 0.45376286 1.503 4284964708
-0.82020855 0.45376286 1.503 4284833122
-0.81734574 0.45376286 1.503 4284964456
-0.81068951 0.45164955 1.4960001 4284832870
-0.80406004 0.4495362 1.4890001 4284767077
-0.80122381 0.4495362 1.4890001 4284701284
-0.79838765 0.4495362 1.4890001 4284832093
-0.79555148 0.4495362 1.4890001 4284503128
-0.79644191 0.45164955 1.4960001 4284568671
-0.78987908 0.4495362 1.4890001 4284568671
-0.78704286 0.4495362 1.4890001 4284503128
-0.78789335 0.45164955 1.4960001 4284305749
-0.79553908 0.45768765 1.516 4284108870
-0.7963115 0.45980099 1.5230001 4284503628
-0.79341054 0.45980099 1.5230001 4285356888
-0.79050958 0.45980099 1.5230001 4285554267
-0.78760862 0.45980099 1.5230001 4285226851
-0.78470767 0.45980099 1.5230001 4285292644
-0.78180677 0.45980099 1.5230001 4285292644
-0.77890575 0.45980099 1.5230001 4285490023
-0.77906191 0.4616124 1.529 4286081656
-0.77614957 0.4616124 1.529 4285621105
-0.77323717 0.4616124 1.529 4285226851
-0.77385145 0.46372572 1.536 4283647819
-0.7709257 0.46372572 1.536 4281085501
-0.76800001 0.46372572 1.536 4278190095
-0.76507425 0.46372572 1.536 4278386946
-0.76214856 0.46372572 1.536 4278979083
-0.76268291 0.46583909 1.5430001 4279241235
-0.71218383 0.45980099 1.5230001 4285622892
-0.70928293 0.45980099 1.5230001 4285359720
-0.70638192 0.45980099 1.5230001 4285162855
-0.70348096 0.45980099 1.5230001 4285228648
-0.70684099 0.46583909 1.5430001 4284965478
-0.70390195 0.46583909 1.5430001 4284899935
-0.69778287 0.46372572 1.536 4284505177
-0.69485718 0.46372572 1.536 4284767329
-0.69508481 0.46583909 1.5430001 4284898915
-0.69528574 0.4679524 1.5500001 4285095267
-0.68920672 0.46583909 1.5430001 4285424232
-0.68626767 0.46583909 1.5430001 4285358439
-0.68332863 0.46583909 1.5430001 4285555818
-0.68347621 0.4679524 1.5500001 4285490275
-0.67745054 0.46583909 1.5430001 4285358689
-0.67451149 0.46583909 1.5430001 4285621607
-0.67157245 0.46583909 1.5430001 4285621607
-0.6686334 0.46583909 1.5430001 4285425509
-0.66569436 0.46583909 1.5430001 4285228130
-0.66275531 0.46583909 1.5430001 4285292644
-0.65981627 0.46583909 1.5430001 4285226851
-0.65687722 0.46583909 1.5430001 4284898663
-0.65393817 0.46583909 1.5430001 4284964456
-0.65395242 0.4679524 1.5500001 4284768617
-0.65100002 0.4679524 1.5500001 4283781722
-0.64804763 0.4679524 1.5500001 4284239956
-0.64509529 0.4679524 1.5500001 4284437335
-0.6450429 0.47006571 1.557 4285158739
-0.64207715 0.47006571 1.557 4285619290
-0.63911146 0.47006571 1.557 4286868855
-0.63614571 0.47006571 1.557 4287066234
-0.63317996 0.47006571 1.557 4287395983
-0.63021433 0.47006571 1.557 4286474881
-0.62724859 0.47006571 1.557 4286147444
-0.62428284 0.47006571 1.557 4285292135
-0.62411052 0.47217909 1.5640001 4285226601
-0.62113148 0.47217909 1.5640001 4285226601
-0.61815244 0.47217909 1.5640001 4285226081
-0.6151734 0.47217909 1.5640001 4285555046
-0.61219436 0.47217909 1.5640001 4285686641
-0.60921526 0.47217909 1.5640001 4284633953
-0.60623622 0.47217909 1.5640001 4283385406
-0.60634291 0.4745943 1.572 4281411616
-0.60027814 0.47217909 1.5640001 4280820015
-0.5972991 0.47217909 1.5640001 4281148980
-0.59432006 0.47217909 1.5640001 4281938447
-0.59436572 0.4745943 1.572 4284306995
-0.59137142 0.4745943 1.572 4285751662
-0.58837718 0.4745943 1.572 4285554283
-0.58240384 0.47217909 1.5640001 4285227103
-0.5794248 0.47217909 1.5640001 4285358689
-0.57939428 0.4745943 1.572 4285950061
-0.57640004 0.4745943 1.572 4285621096
-0.57595909 0.47670764 1.5790001 4284832597
-0.5729515 0.47670764 1.5790001 4280950810
-0.56994385 0.47670764 1.5790001 4279634950
-0.57232195 0.48123622 1.5940001 4278779904
-0.57178569 0.48334953 1.6010001 4278518552
-0.57157815 0.4857648 1.6090001 4278584345
-0.52482957 0.47670764 1.5790001 4287002994
-0.52182192 0.47670764 1.5790001 4287067520
-0.51881433 0.47670764 1.5790001 4286738555
-0.51580673 0.47670764 1.5790001 4286345071
-0.51279908 0.47670764 1.5790001 4285292383
-0.51205146 0.47882098 1.5860001 4285292896
-0.51159811 0.48123622 1.5940001 4285029724
-0.51079524 0.48334953 1.6010001 4284963168
-0.50774568 0.48334953 1.6010001 4284765789
-0.50469619 0.48334953 1.6010001 4284568399
-0.50164664 0.48334953 1.6010001 4284568399
-0.49641716 0.48123622 1.5940001 4285028954
-0.49090478 0.47882098 1.5860001 4285423712
-0.48788381 0.47882098 1.5860001 4285031003
-0.48486286 0.47882098 1.5860001 4285031003
-0.48184192 0.47882098 1.5860001 4285161310
-0.47882098 0.47882098 1.5860001 4285227103
-0.47580001 0.47882098 1.5860001 4285423210
-0.47516382 0.48123622 1.5940001 4285357417
-0.47420096 0.48334953 1.6010001 4285816937
-0.47115144 0.48334953 1.6010001 4285553765
-0.46810192 0.48334953 1.6010001 4285161060
-0.4650524 0.48334953 1.6010001 4284963681
-0.46431145 0.4857648 1.6090001 4285161560
-0.46124667 0.4857648 1.6090001 4285227353
-0.45818192 0.4857648 1.6090001 4285226853
-0.45511717 0.4857648 1.6090001 4284371544
-0.45205241 0.4857648 1.6090001 4284240458
-0.44898763 0.4857648 1.6090001 4284240458
-0.44592288 0.4857648 1.6090001 4284175192
-0.44285813 0.4857648 1.6090001 4284372571
-0.44170669 0.48787811 1.6160001 4284569173
-0.43862858 0.48787811 1.6160001 4284569173
-0.43555048 0.48787811 1.6160001 4284897368
-0.43059906 0.4857648 1.6090001 4284963161
-0.42753428 0.4857648 1.6090001 4284897368
-0.42842668 0.49029338 1.6240001 4285028954
-0.42533332 0.49029338 1.6240001 4285029222
-0.42224002 0.49029338 1.6240001 4285029222
-0.41914669 0.49029338 1.6240001 4284702556
-0.41605335 0.49029338 1.6240001 4284636763
-0.41296002 0.49029338 1.6240001 4284899417
-0.40986669 0.49029338 1.6240001 4284241487
-0.40677336 0.49029338 1.6240001 4284437839
-0.40368 0.49029338 1.6240001 4284569425
-0.39861333 0.48787811 1.6160001 4284831314
-0.39553523 0.48787811 1.6160001 4285160279
-0.39245716 0.48787811 1.6160001 4284963411
-0.38937905 0.48787811 1.6160001 4285292376
-0.38630098 0.48787811 1.6160001 4285489503
-0.38512 0.49029338 1.6240001 4285555296
-0.3839086 0.49270862 1.6320001 4285949793
-0.38243335 0.49482188 1.6390001 4285949793
-0.37931144 0.49482188 1.6390001 4285292896
-0.37802574 0.49723715 1.6470001 4280226835
-0.3748886 0.49723715 1.6470001 4279109376
-0.37355715 0.49965239 1.6550001 4279438339
-0.37040478 0.49965239 1.6550001 4279632911
-0.36725241 0.49965239 1.6550001 4279567118
-0.36410001 0.49965239 1.6550001 4279306242
-0.36094764 0.49965239 1.6550001 4279174656
-0.34612095 0.48334953 1.6010001 4279306242
-0.34307143 0.48334953 1.6010001 4278977280
-0.34002191 0.48334953 1.6010001 4278583808
-0.33697239 0.48334953 1.6010001 4278583808
-0.33392286 0.48334953 1.6010001 4278780166
-0.33087334 0.48334953 1.6010001 4278780166
-0.32782382 0.48334953 1.6010001 4278452993
-0.3247743 0.48334953 1.6010001 4278387200
-0.3203181 0.48123622 1.5940001 4278518795
-0.31728193 0.48123622 1.5940001 4278453002
-0.31424573 0.48123622 1.5940001 4278387712
-0.31120953 0.48123622 1.5940001 4278453504
-0.30817336 0.48123622 1.5940001 4278583816
-0.30513716 0.48123622 1.5940001 4278386693
-0.30210099 0.48123622 1.5940001 4278321153
-0.29906476 0.48123622 1.5940001 4278321153
-0.29602858 0.48123622 1.5940001 4278648832
-0.29299241 0.48123622 1.5940001 4279043590
-0.28850096 0.47882098 1.5860001 4280945157
-0.28548002 0.47882098 1.5860001 4281142536
-0.28245905 0.47882098 1.5860001 4281212160
-0.27943811 0.47882098 1.5860001 4282725392
-0.27641714 0.47882098 1.5860001 4283448632
-0.27218953 0.47670764 1.5790001 4285027664
-0.26918194 0.47670764 1.5790001 4284701500
-0.26617432 0.47670764 1.5790001 4282267159
-0.26433334 0.47882098 1.5860001 4282785303
-0.26378384 0.48334953 1.6010001 4282061580
-0.26073432 0.48334953 1.6010001 4282127637
-0.25655812 0.48123622 1.5940001 4282127637
-0.25352192 0.48123622 1.5940001 4283444521
-0.25158572 0.48334953 1.6010001 4283444521
-0.2485362 0.48334953 1.6010001 4284300073
-0.24548668 0.48334953 1.6010001 4285155382
-0.24243714 0.48334953 1.6010001 4283975519
-0.24058381 0.4857648 1.6090001 4282659659
-0.24667142 0.50448287 1.6710001 4284040499
-0.24348859 0.50448287 1.6710001 4287659114
-0.23800477 0.49965239 1.6550001 4288383366
-0.23045334 0.49029338 1.6240001 4287462264
-0.22623999 0.48787811 1.6160001 4286870647
-0.22219524 0.4857648 1.6090001 4286607475
-0.21804096 0.48334953 1.6010001 4286346095
-0.21499144 0.48334953 1.6010001 4286082923
-0.21300097 0.4857648 1.6090001 4285818990
-0.2099362 0.4857648 1.6090001 4285621611
-0.20687144 0.4857648 1.6090001 4285227103
-0.20469333 0.48787811 1.6160001 4287069307
-0.20161524 0.48787811 1.6160001 4287332243
-0.20332858 0.49965239 1.6550001 4284963695
-0.20017619 0.49965239 1.6550001 4284108100
-0.19702382 0.49965239 1.6550001 4283515963
-0.19387144 0.49965239 1.6550001 4283319885
-0.19164096 0.50206763 1.6630001 4284504159
-0.18847334 0.50206763 1.6630001 4284570200
-0.18530573 0.50206763 1.6630001 4284504407
-0.1821381 0.50206763 1.6630001 4284568921
-0.17897049 0.50206763 1.6630001 4285029472
-0.17580287 0.50206763 1.6630001 4284636511
-0.17263524 0.50206763 1.6630001 4280425759
-0.16946763 0.50206763 1.6630001 4278650113
-0.13728572 0.4679524 1.5500001 4280756779
-0.13433333 0.4679524 1.5500001 4283452489
-0.13138096 0.4679524 1.5500001 4283255110
-0.12784858 0.46583909 1.5430001 4283451203
-0.12490954 0.46583909 1.5430001 4283451203
-0.12197049 0.46583909 1.5430001 4283188299
-0.11903144 0.46583909 1.5430001 4283319885
-0.11609239 0.46583909 1.5430001 4283319635
-0.11315334 0.46583909 1.5430001 4283188049
-0.11021429 0.46583909 1.5430001 4282860361
-0.10727525 0.46583909 1.5430001 4282860361
-0.10433619 0.46583909 1.5430001 4282795590
-0.10139715 0.46583909 1.5430001 4282729797
-0.098458096 0.46583909 1.5430001 4282860109
-0.095519051 0.46583909 1.5430001 4282860109
-0.092580006 0.46583909 1.5430001 4282860361
-0.08964096 0.46583909 1.5430001 4282860361
-0.086308569 0.46372572 1.536 4283255378
