# .PCD v0.7 - Point Cloud Data file format
VERSION 0.7
FIELDS x y z rgba
SIZE 4 4 4 4
TYPE F F F U
COUNT 1 1 1 1
WIDTH 1127
HEIGHT 1
VIEWPOINT 0 0 0 1 0 0 0
POINTS 1127
DATA ascii
-0.57902282 0.47440192 1.8940001 4283779639
-0.57845336 0.47690669 1.904 4283713596
-0.57482666 0.47690669 1.904 4283582010
-0.57780004 0.48241717 1.9260001 4283516206
-0.57711238 0.48492193 1.9360001 4283384620
-0.57342476 0.48492193 1.9360001 4283646263
-0.5697372 0.48492193 1.9360001 4283646263
-0.56604958 0.48492193 1.9360001 4283908922
-0.56555718 0.48767716 1.9470001 4284369473
-0.56184858 0.48767716 1.9470001 4284765234
-0.56158006 0.4906829 1.9590001 4285094199
-0.55443144 0.48767716 1.9470001 4285357630
-0.5507229 0.48767716 1.9470001 4285357630
-0.55347621 0.49343812 1.9700001 4285423423
-0.55279338 0.49619332 1.9810001 4285423423
-0.54901999 0.49619332 1.9810001 4285095747
-0.54854959 0.49919909 1.9930001 4282529820
-0.54475337 0.49919909 1.9930001 4281213462
-0.54421431 0.50220478 2.0050001 4280489739
-0.54335999 0.50496 2.016 4281339674
-0.53952003 0.50496 2.016 4282984499
-0.53568 0.50496 2.016 4283646469
-0.53500575 0.50796574 2.0280001 4284699157
-0.53114289 0.50796574 2.0280001 4284371232
-0.53040004 0.51097149 2.0400002 4284305439
-0.52651429 0.51097149 2.0400002 4284305444
-0.52262861 0.51097149 2.0400002 4284371237
-0.51874292 0.51097149 2.0400002 4284371752
-0.51813811 0.51422763 2.0530002 4284437545
-0.51723337 0.51723337 2.0650001 4284371752
-0.5133 0.51723337 2.0650001 4284371752
-0.50936669 0.51723337 2.0650001 4284305455
-0.50861526 0.52048957 2.0780001 4284173869
-0.50757146 0.52349526 2.0900002 4284043051
-0.50672287 0.52675146 2.1030002 4284043051
-0.50271714 0.52675146 2.1030002 4284042802
-0.50179434 0.53000766 2.1160002 4284174388
-0.49776384 0.53000766 2.1160002 4284174134
-0.49676669 0.53326386 2.1290002 4284174134
-0.49271145 0.53326386 2.1290002 4284305972
-0.48865622 0.53326386 2.1290002 4284305972
-0.4877876 0.53677046 2.1430001 4284372016
-0.48370573 0.53677046 2.1430001 4284372016
-0.48253337 0.54002666 2.1560001 4284503602
-0.48153335 0.54353333 2.1700001 4284437809
-0.4774 0.54353333 2.1700001 4284503602
-0.47632 0.54704005 2.184 4284503602
-0.47518671 0.55054671 2.1980002 4284372786
-0.47100005 0.55054671 2.1980002 4284241200
-0.4697867 0.55405337 2.2120001 4284174654
-0.46557334 0.55405337 2.2120001 4284043068
-0.46428001 0.55755997 2.2260001 4283977529
-0.46004 0.55755997 2.2260001 4283977529
-0.45887145 0.56131721 2.2410002 4283911734
-0.45764571 0.56507427 2.256 4283845941
-0.45334858 0.56507427 2.256 4283845941
-0.44905141 0.56507427 2.256 4283648562
-0.44475427 0.56507427 2.256 4283648555
-0.44338572 0.56883144 2.2710001 4283188004
-0.43906003 0.56883144 2.2710001 4282529588
-0.43473431 0.56883144 2.2710001 4279371524
-0.43325141 0.57258856 2.286 4281141766
-0.42889714 0.57258856 2.286 4288707961
-0.42732862 0.57634574 2.3010001 4290356638
-0.42294574 0.57634574 2.3010001 4290488224
0.094811432 0.40877718 1.6320001 4291803841
0.097920001 0.40877718 1.6320001 4292856529
0.10053334 0.40677336 1.6240001 4292527539
0.10311619 0.40476954 1.6160001 4291738023
0.10619429 0.40476954 1.6160001 4291409326
0.10879906 0.40301621 1.6090001 4291409326
0.11186381 0.40301621 1.6090001 4291475119
0.11492857 0.40301621 1.6090001 4291343533
0.11799334 0.40301621 1.6090001 4291407268
0.1210581 0.40301621 1.6090001 4291538854
0.12412287 0.40301621 1.6090001 4292130989
0.12655525 0.40101239 1.6010001 4292525747
0.12960477 0.40101239 1.6010001 4291607457
0.13265428 0.40101239 1.6010001 4291541664
0.13570382 0.40101239 1.6010001 4291410866
0.13875334 0.40101239 1.6010001 4291937210
0.14180286 0.40101239 1.6010001 4292066486
0.14485238 0.40101239 1.6010001 4291934900
0.14790191 0.40101239 1.6010001 4292133560
0.15095143 0.40101239 1.6010001 4292199353
0.15400095 0.40101239 1.6010001 4291805372
0.15705048 0.40101239 1.6010001 4291739579
0.1594 0.39925906 1.5940001 4291804854
0.1624362 0.39925906 1.5940001 4291410096
0.1654724 0.39925906 1.5940001 4291409844
0.16850857 0.39925906 1.5940001 4291541430
0.17154478 0.39925906 1.5940001 4291606453
0.17458096 0.39925906 1.5940001 4291540660
0.17761716 0.39925906 1.5940001 4291475369
0.17974667 0.39725524 1.5860001 4291804334
0.18276763 0.39725524 1.5860001 4291869884
0.18578857 0.39725524 1.5860001 4292264642
0.18880953 0.39725524 1.5860001 4291937210
0.19183049 0.39725524 1.5860001 4292266175
0.19399144 0.39550194 1.5790001 4292069312
0.19699906 0.39550194 1.5790001 4292200898
0.20089334 0.39725524 1.5860001 4291937224
0.2039143 0.39725524 1.5860001 4291608259
0.20693524 0.39725524 1.5860001 4291410630
0.2099562 0.39725524 1.5860001 4291147458
0.21297714 0.39725524 1.5860001 4290949559
0.21599811 0.39725524 1.5860001 4290949559
0.21901906 0.39725524 1.5860001 4291146674
0.22204001 0.39725524 1.5860001 4291541432
0.22406763 0.39550194 1.5790001 4291279028
0.22707525 0.39550194 1.5790001 4291410614
0.23008287 0.39550194 1.5790001 4291081658
0.23309049 0.39550194 1.5790001 4290884279
0.23609811 0.39550194 1.5790001 4290423453
0.23804571 0.39374858 1.572 4289304972
0.24104001 0.39374858 1.572 4290686366
0.24403428 0.39374858 1.572 4291804847
0.24702857 0.39374858 1.572 4291541946
0.25002286 0.39374858 1.572 4291805118
0.25301713 0.39374858 1.572 4291278778
0.25601143 0.39374858 1.572 4290357676
0.2590057 0.39374858 1.572 4289831297
0.26199999 0.39374858 1.572 4289304953
0.26499429 0.39374858 1.572 4289436572
0.26798856 0.39374858 1.572 4288844435
0.27098286 0.39374858 1.572 4289303939
0.27519718 0.39550194 1.5790001 4291935659
0.27820477 0.39550194 1.5790001 4292462514
0.28121239 0.39550194 1.5790001 4292659893
0.28422004 0.39550194 1.5790001 4293582805
0.28722763 0.39550194 1.5790001 4294965486
0.29023525 0.39550194 1.5790001 4294109937
0.29194286 0.39374858 1.572 4291149252
0.29493713 0.39374858 1.572 4290884520
0.29793143 0.39374858 1.572 4290884520
0.30092573 0.39374858 1.572 4290288803
0.30392 0.39374858 1.572 4287788669
0.3069143 0.39374858 1.572 4287987024
0.30990857 0.39374858 1.572 4289039712
0.31290287 0.39374858 1.572 4289175203
0.31589717 0.39374858 1.572 4288912031
0.31889144 0.39374858 1.572 4291015602
0.32024765 0.39174479 1.5640001 4294965495
0.32322669 0.39174479 1.5640001 4294900478
0.32474571 0.38999143 1.557 4290558140
0.32771143 0.38999143 1.557 4287401120
0.38717049 0.4566181 1.8230001 4281479750
0.39064288 0.4566181 1.8230001 4280624421
0.39195335 0.45411336 1.8130001 4282729797
0.39540669 0.45411336 1.8130001 4283320621
0.39886001 0.45411336 1.8130001 4283583793
0.40453237 0.4566181 1.8230001 4283649091
0.40800479 0.4566181 1.8230001 4283320126
0.41147715 0.4566181 1.8230001 4283383866
0.41722572 0.45912287 1.8330001 4283976003
0.42071715 0.45912287 1.8330001 4285882962
0.42652285 0.46162763 1.8430001 4289501577
0.43003333 0.46162763 1.8430001 4289699751
0.4335438 0.46162763 1.8430001 4289568165
0.48779714 0.42906573 1.7130001 4287463300
0.48876667 0.42706192 1.705 4286806887
0.49201426 0.42706192 1.705 4285885785
0.49526194 0.42706192 1.705 4286148466
0.49850953 0.42706192 1.705 4287266947
0.50175714 0.42706192 1.705 4287529084
0.50500476 0.42706192 1.705 4287858049
0.50556952 0.42480764 1.6960001 4287726458
0.50880003 0.42480764 1.6960001 4287594872
0.51203048 0.42480764 1.6960001 4287659893
0.51526099 0.42480764 1.6960001 4287791479
0.51849145 0.42480764 1.6960001 4287857290
0.52172196 0.42480764 1.6960001 4288186255
0.52495241 0.42480764 1.6960001 4288384393
0.52818286 0.42480764 1.6960001 4289305495
0.53141332 0.42480764 1.6960001 4288450692
0.53464383 0.42480764 1.6960001 4287661176
0.54072857 0.42706192 1.705 4287923353
0.54397619 0.42706192 1.705 4288515490
0.54722381 0.42706192 1.705 4288255126
0.55047143 0.42706192 1.705 4288518298
0.55371904 0.42706192 1.705 4288190107
-1.1583667 0.52116668 2.0650001 4284174188
-1.1544334 0.52116668 2.0650001 4284044140
-1.1505001 0.52116668 2.0650001 4284175726
-1.1465666 0.52116668 2.0650001 4285096044
-1.1564667 0.52747619 2.0900002 4285030251
-1.1524858 0.52747619 2.0900002 4284833140
-1.1485049 0.52747619 2.0900002 4285030519
-1.1445239 0.52747619 2.0900002 4284702333
-1.1405429 0.52747619 2.0900002 4284044403
-1.136562 0.52747619 2.0900002 4283453034
-1.1396258 0.53075719 2.1030002 4283453034
-1.1286 0.52747619 2.0900002 4283518057
-1.1246191 0.52747619 2.0900002 4283583850
-1.1206381 0.52747619 2.0900002 4284242025
-1.1166573 0.52747619 2.0900002 4284242025
-1.1126763 0.52747619 2.0900002 4284110444
-1.1023296 0.52444768 2.0780001 4284044651
-1.0983715 0.52444768 2.0780001 4284175980
-1.0944134 0.52444768 2.0780001 4283189085
-1.1035743 0.53075719 2.1030002 4283450217
-1.0995687 0.53075719 2.1030002 4283450217
-1.1023353 0.53403813 2.1160002 4283582557
-0.9390524 0.46513811 1.8430001 4282858303
-0.93554193 0.46513811 1.8430001 4281937201
-0.92697436 0.4626143 1.8330001 4281806133
-0.92348289 0.4626143 1.8330001 4282003512
-0.91999143 0.4626143 1.8330001 4281740340
-0.91649997 0.4626143 1.8330001 4281477168
-0.91798955 0.46513811 1.8430001 4281216038
-0.91447902 0.46513811 1.8430001 4281150245
-0.90602571 0.4626143 1.8330001 4281215788
-0.90253431 0.4626143 1.8330001 4281215788
-0.90394765 0.46513811 1.8430001 4281411627
-0.90043718 0.46513811 1.8430001 4281411627
-0.89692664 0.46513811 1.8430001 4281542693
-0.88856858 0.4626143 1.8330001 4281542693
-0.88507718 0.4626143 1.8330001 4281345057
-0.88158572 0.4626143 1.8330001 4281345057
-0.87809432 0.4626143 1.8330001 4281018648
-0.8698315 0.46009049 1.8230001 4280163339
-0.86635911 0.46009049 1.8230001 4279702036
-0.86762005 0.4626143 1.8330001 4278780934
-0.86412859 0.4626143 1.8330001 4278845959
-0.86063713 0.4626143 1.8330001 4278780166
-0.86182189 0.46513811 1.8430001 4278649609
-0.85831147 0.46513811 1.8430001 4278583816
-0.85480094 0.46513811 1.8430001 4278387720
-0.85590953 0.46766192 1.853 4278387720
-0.85238004 0.46766192 1.853 4278387459
-0.85343146 0.47018573 1.863 4278387459
-0.84988284 0.47018573 1.863 4278321666
-0.85087723 0.47270954 1.8730001 4278321666
-0.85183334 0.47523335 1.8830001 4278387459
-0.84824669 0.47523335 1.8830001 4278387459
-0.8495943 0.47800952 1.8940001 4278387459
-0.85045332 0.48053333 1.904 4278387459
-0.85171908 0.48330957 1.9150001 4278452993
-0.84807146 0.48330957 1.9150001 4278452993
-0.84927434 0.48608574 1.9260001 4278452743
-0.84560573 0.48608574 1.9260001 4278452743
-0.84193718 0.48608574 1.9260001 4278321668
-0.84262103 0.48860955 1.9360001 4278321668
-0.83893341 0.48860955 1.9360001 4278386946
-0.83524579 0.48860955 1.9360001 4278386946
-0.83155811 0.48860955 1.9360001 4278386946
-0.83257431 0.49138573 1.9470001 4278386946
-0.82886577 0.49138573 1.9470001 4278386946
-0.83490485 0.49719051 1.9700001 4278386946
-0.83579332 0.49996668 1.9810001 4278452992
-0.83706009 0.50299525 1.9930001 4278387200
-0.83828104 0.50602382 2.0050001 4278452993
-0.83446193 0.50602382 2.0050001 4278518786
-0.83520001 0.50879997 2.016 4278387459
-0.8363086 0.5118286 2.0280001 4278321666
-0.71751237 0.4411619 1.748 4278452741
-0.71418285 0.4411619 1.748 4278452741
-0.70719337 0.43889049 1.7390001 4278779905
-0.70388097 0.43889049 1.7390001 4279174663
-0.70056862 0.43889049 1.7390001 4280291077
-0.69725621 0.43889049 1.7390001 4281080593
-0.69753522 0.4411619 1.748 4281806859
-0.69778007 0.44343334 1.7570001 4281872652
-0.69443333 0.44343334 1.7570001 4281871901
-0.69462669 0.44570479 1.766 4281871901
-0.69126284 0.44570479 1.766 4281806635
-0.69179434 0.4482286 1.7760001 4281740842
-0.68841147 0.4482286 1.7760001 4281937444
-0.68502861 0.4482286 1.7760001 4282266409
-0.68164575 0.4482286 1.7760001 4282398002
-0.67826295 0.4482286 1.7760001 4281805865
-0.67108005 0.44570479 1.766 4282000927
-0.66771615 0.44570479 1.766 4281671962
-0.66435236 0.44570479 1.766 4281541120
-0.66098857 0.44570479 1.766 4281475328
-0.66134864 0.4482286 1.7760001 4282393368
-0.65796578 0.4482286 1.7760001 4284169779
-0.65458292 0.4482286 1.7760001 4284499743
-0.65120006 0.4482286 1.7760001 4284302364
-0.65110004 0.45050001 1.7850001 4285614848
-0.64770001 0.45050001 1.7850001 4288312351
-0.64429998 0.45050001 1.7850001 4287790429
-0.64090002 0.45050001 1.7850001 4287461464
-0.63750005 0.45050001 1.7850001 4286938230
-0.63410002 0.45050001 1.7850001 4286675058
-0.63070005 0.45050001 1.7850001 4286675058
-0.62730002 0.45050001 1.7850001 4286214507
-0.63054103 0.45529526 1.8040001 4286345834
-0.62710476 0.45529526 1.8040001 4286280041
-0.62366861 0.45529526 1.8040001 4286213735
-0.62023246 0.45529526 1.8040001 4286345321
-0.61679626 0.45529526 1.8040001 4286608999
-0.61642003 0.45756668 1.8130001 4285951069
-0.61296672 0.45756668 1.8130001 4286146920
-0.61287528 0.46009049 1.8230001 4285949541
-0.60940289 0.46009049 1.8230001 4285950563
-0.6092543 0.4626143 1.8330001 4285884770
-0.6057629 0.4626143 1.8330001 4285950556
-0.60555714 0.46513811 1.8430001 4285818970
-0.60531336 0.46766192 1.853 4285885015
-0.60178381 0.46766192 1.853 4285885015
-0.60148287 0.47018573 1.863 4285884763
-0.59793425 0.47018573 1.863 4285753177
-0.59757626 0.47270954 1.8730001 4285884502
-0.59400862 0.47270954 1.8730001 4285752916
-0.59359342 0.47523335 1.8830001 4285621841
-0.59000665 0.47523335 1.8830001 4284569153
-0.58642 0.47523335 1.8830001 4284503878
-0.58283335 0.47523335 1.8830001 4283977534
-0.58263052 0.47800952 1.8940001 4283911734
-0.57902282 0.47800952 1.8940001 4283516976
-0.57541525 0.47800952 1.8940001 4283581497
-0.57482666 0.48053333 1.904 4283581497
-0.57120001 0.48053333 1.904 4283320119
-0.57413143 0.48608574 1.9260001 4283188533
-0.57342476 0.48860955 1.9360001 4283383602
-0.5697372 0.48860955 1.9360001 4283317809
-0.56604958 0.48860955 1.9360001 4283711788
-0.56555718 0.49138573 1.9470001 4284369718
-0.56184858 0.49138573 1.9470001 4284371248
-0.55814004 0.49138573 1.9470001 4284634420
-0.55443144 0.49138573 1.9470001 4285160256
-0.5507229 0.49138573 1.9470001 4285160256
-0.55347621 0.49719051 1.9700001 4285226298
-0.55279338 0.49996668 1.9810001 4285423677
-0.54901999 0.49996668 1.9810001 4285226807
-0.54854959 0.50299525 1.9930001 4283318810
-0.54475337 0.50299525 1.9930001 4282922258
-0.54719996 0.50879997 2.016 4281014272
-0.54335999 0.50879997 2.016 4281209092
-0.53952003 0.50879997 2.016 4281801229
-0.53568 0.50879997 2.016 4283447818
-0.53184003 0.50879997 2.016 4284961057
-0.53114289 0.5118286 2.0280001 4284437025
-0.52728003 0.5118286 2.0280001 4284305439
-0.52341717 0.5118286 2.0280001 4284305957
-0.52262861 0.51485717 2.0400002 4284108578
-0.51874292 0.51485717 2.0400002 4284173610
-0.51485717 0.51485717 2.0400002 4284370989
-0.51422763 0.51813811 2.0530002 4284371500
-0.51031721 0.51813811 2.0530002 4284371500
-0.50936669 0.52116668 2.0650001 4284043053
-0.50861526 0.52444768 2.0780001 4283911467
-0.50757146 0.52747619 2.0900002 4284107817
-0.50672287 0.53075719 2.1030002 4284042024
-0.50271714 0.53075719 2.1030002 4283976231
-0.49871147 0.53075719 2.1030002 4284173610
-0.49776384 0.53403813 2.1160002 4284174388
-0.49676669 0.53731912 2.1290002 4284174388
-0.49271145 0.53731912 2.1290002 4284305720
-0.48865622 0.53731912 2.1290002 4284305720
-0.4877876 0.54085237 2.1430001 4284240697
-0.48370573 0.54085237 2.1430001 4284240697
-0.48253337 0.54413337 2.1560001 4284372535
-0.48153335 0.54766673 2.1700001 4284372535
-0.48047999 0.55120003 2.184 4284109616
-0.47632 0.55120003 2.184 4284241202
-0.47518671 0.55473334 2.1980002 4284240697
-0.47100005 0.55473334 2.1980002 4284174904
-0.4697867 0.5582667 2.2120001 4284043572
-0.46557334 0.5582667 2.2120001 4283911986
-0.46136004 0.5582667 2.2120001 4283911734
-0.46004 0.5618 2.2260001 4283911734
-0.45887145 0.56558573 2.2410002 4283911734
-0.45764571 0.56937146 2.256 4283780148
-0.45334858 0.56937146 2.256 4283780148
-0.44905141 0.56937146 2.256 4283714355
-0.44475427 0.56937146 2.256 4283122729
-0.44338572 0.57315719 2.2710001 4283056936
-0.43906003 0.57315719 2.2710001 4282137390
-0.43473431 0.57315719 2.2710001 4279439877
-0.4304086 0.57315719 2.2710001 4280354816
-0.42889714 0.5769428 2.286 4288315765
-0.42454284 0.5769428 2.286 4290093212
-0.42018858 0.5769428 2.286 4290093212
0.094811432 0.41188571 1.6320001 4292328886
0.097920001 0.41188571 1.6320001 4292328886
0.10053334 0.40986669 1.6240001 4292130987
0.10311619 0.40784764 1.6160001 4291933608
0.10619429 0.40784764 1.6160001 4291671467
0.10879906 0.40608096 1.6090001 4291671467
0.11186381 0.40608096 1.6090001 4291605931
0.11492857 0.40608096 1.6090001 4291540138
0.11799334 0.40608096 1.6090001 4291474347
0.1210581 0.40608096 1.6090001 4290948003
0.12412287 0.40608096 1.6090001 4291144610
0.12655525 0.40406191 1.6010001 4291473575
0.12960477 0.40406191 1.6010001 4291343011
0.13265428 0.40406191 1.6010001 4291737769
0.13570382 0.40406191 1.6010001 4291672237
0.13875334 0.40406191 1.6010001 4291935409
0.14180286 0.40406191 1.6010001 4291869105
0.14485238 0.40406191 1.6010001 4291869105
0.14790191 0.40406191 1.6010001 4292067767
0.15095143 0.40406191 1.6010001 4291936181
0.15400095 0.40406191 1.6010001 4291542450
0.15705048 0.40406191 1.6010001 4291739829
0.1594 0.40229526 1.5940001 4291739084
0.1624362 0.40229526 1.5940001 4291278533
0.1654724 0.40229526 1.5940001 4291278010
0.16850857 0.40229526 1.5940001 4291343803
0.17154478 0.40229526 1.5940001 4291409324
0.17458096 0.40229526 1.5940001 4291475117
0.17761716 0.40229526 1.5940001 4291409576
0.17974667 0.40027618 1.5860001 4291606955
0.18276763 0.40027618 1.5860001 4291541430
0.18578857 0.40027618 1.5860001 4292330946
0.1879762 0.39850953 1.5790001 4292003269
0.19098383 0.39850953 1.5790001 4292463820
0.19399144 0.39850953 1.5790001 4292924884
0.19699906 0.39850953 1.5790001 4293253849
0.20089334 0.40027618 1.5860001 4293912040
0.2039143 0.40027618 1.5860001 4292990938
0.20693524 0.40027618 1.5860001 4292924380
0.2099562 0.40027618 1.5860001 4292200657
0.21297714 0.40027618 1.5860001 4291542970
0.21504477 0.39850953 1.5790001 4291214005
0.2180524 0.39850953 1.5790001 4291278760
0.22204001 0.40027618 1.5860001 4291607725
0.22406763 0.39850953 1.5790001 4291739336
0.22707525 0.39850953 1.5790001 4291541957
0.23008287 0.39850953 1.5790001 4291147199
0.23309049 0.39850953 1.5790001 4291212992
0.23609811 0.39850953 1.5790001 4290161585
0.23804571 0.39674288 1.572 4288845725
0.24104001 0.39674288 1.572 4289368710
0.24403428 0.39674288 1.572 4291342500
0.24702857 0.39674288 1.572 4291540401
0.24875049 0.39472383 1.5640001 4291737780
0.25172952 0.39472383 1.5640001 4291278010
0.25470859 0.39472383 1.5640001 4289567392
0.25768763 0.39472383 1.5640001 4288318327
0.26066667 0.39472383 1.5640001 4289502601
0.26499429 0.39674288 1.572 4289502099
0.26798856 0.39674288 1.572 4288909962
0.27098286 0.39674288 1.572 4289631891
0.27519718 0.39850953 1.5790001 4292263611
0.27820477 0.39850953 1.5790001 4291871163
0.28121239 0.39850953 1.5790001 4291607991
0.28422004 0.39850953 1.5790001 4292593841
0.28722763 0.39850953 1.5790001 4294962903
0.29023525 0.39850953 1.5790001 4294900478
0.29194286 0.39674288 1.572 4293189860
0.29493713 0.39674288 1.572 4290624205
0.29793143 0.39674288 1.572 4289242552
0.30092573 0.39674288 1.572 4289764492
0.30392 0.39674288 1.572 4287461737
0.3069143 0.39674288 1.572 4286609497
0.30990857 0.39674288 1.572 4286543704
0.3113105 0.39472383 1.5640001 4287464308
0.31428954 0.39472383 1.5640001 4289306512
0.31726858 0.39472383 1.5640001 4291212983
0.32024765 0.39472383 1.5640001 4294965497
0.32322669 0.39472383 1.5640001 4294900991
0.32474571 0.39295715 1.557 4291808720
0.32771143 0.39295715 1.557 4289570504
0.33067715 0.39295715 1.557 4283385962
0.39064288 0.46009049 1.8230001 4281805106
0.39411524 0.46009049 1.8230001 4282989380
0.39758763 0.46009049 1.8230001 4283188533
0.40106001 0.46009049 1.8230001 4283649084
0.40453237 0.46009049 1.8230001 4283910982
0.40800479 0.46009049 1.8230001 4283845189
0.41147715 0.46009049 1.8230001 4283123260
0.41722572 0.4626143 1.8330001 4282202158
0.42071715 0.4626143 1.8330001 4284174112
0.42420858 0.4626143 1.8330001 4288648036
0.42770001 0.4626143 1.8330001 4288912031
0.43119144 0.4626143 1.8330001 4289043617
0.48127145 0.43232858 1.7130001 4286804859
0.48453429 0.43232858 1.7130001 4286739568
0.48779714 0.43232858 1.7130001 4287068533
0.48876667 0.43030953 1.705 4287003496
0.49201426 0.43030953 1.705 4286148187
0.49526194 0.43030953 1.705 4286475873
0.49850953 0.43030953 1.705 4287791733
0.50175714 0.43030953 1.705 4287660413
0.50500476 0.43030953 1.705 4287726206
0.50556952 0.42803812 1.6960001 4287791999
0.50880003 0.42803812 1.6960001 4287660413
0.51203048 0.42803812 1.6960001 4287725179
0.51526099 0.42803812 1.6960001 4287922558
0.51849145 0.42803812 1.6960001 4287988106
0.52172196 0.42803812 1.6960001 4288448657
0.52495241 0.42803812 1.6960001 4288449679
0.52818286 0.42803812 1.6960001 4288647058
0.53141332 0.42803812 1.6960001 4288581263
0.53464383 0.42803812 1.6960001 4287923333
0.54072857 0.43030953 1.705 4287988360
0.54397619 0.43030953 1.705 4288580497
0.54722381 0.43030953 1.705 4288582035
0.55047143 0.43030953 1.705 4288911000
0.55371904 0.43030953 1.705 4288976298
-1.1583667 0.52510005 2.0650001 4283517558
-1.1544334 0.52510005 2.0650001 4283452005
-1.1505001 0.52510005 2.0650001 4283649384
-1.1465666 0.52510005 2.0650001 4284241755
-1.1564667 0.53145719 2.0900002 4284307548
-1.1524858 0.53145719 2.0900002 4284307566
-1.1485049 0.53145719 2.0900002 4284439152
-1.1445239 0.53145719 2.0900002 4284504954
-1.1405429 0.53145719 2.0900002 4284241782
-1.136562 0.53145719 2.0900002 4284307823
-1.132581 0.53145719 2.0900002 4284834167
-1.12212 0.52840573 2.0780001 4284833406
-1.1111666 0.52510005 2.0650001 4284636027
-1.1072334 0.52510005 2.0650001 4284439404
-1.1033001 0.52510005 2.0650001 4284373611
-1.1062876 0.52840573 2.0780001 4284242032
-1.1023296 0.52840573 2.0780001 4284110446
-1.0983715 0.52840573 2.0780001 4284110187
-1.0944134 0.52840573 2.0780001 4283189085
-1.0967524 0.53145719 2.0900002 4283385454
-1.0995687 0.53476286 2.1030002 4283451247
-1.1023353 0.53806859 2.1160002 4283516764
-1.0848095 0.53145719 2.0900002 4283845729
-1.0808287 0.53145719 2.0900002 4283846241
-0.93744862 0.46610573 1.8330001 4282201416
-0.93395716 0.46610573 1.8330001 4281806385
-0.9304657 0.46610573 1.8330001 4281674799
-0.92697436 0.46610573 1.8330001 4281740340
-0.92348289 0.46610573 1.8330001 4281937719
-0.91999143 0.46610573 1.8330001 4281872428
-0.91649997 0.46610573 1.8330001 4281477670
-0.91798955 0.46864858 1.8430001 4281346588
-0.90951717 0.46610573 1.8330001 4281412381
-0.90108287 0.46356288 1.8230001 4281215788
-0.89761049 0.46356288 1.8230001 4281215788
-0.8990429 0.46610573 1.8330001 4281216038
-0.89066571 0.46356288 1.8230001 4281084452
-0.88719338 0.46356288 1.8230001 4281411877
-0.88372099 0.46356288 1.8230001 4281214498
-0.88024861 0.46356288 1.8230001 4281346838
-0.87677622 0.46356288 1.8230001 4281215252
-0.87809432 0.46610573 1.8330001 4280556550
-0.87460285 0.46610573 1.8330001 4278977536
-0.87111145 0.46610573 1.8330001 4278977034
-0.86762005 0.46610573 1.8330001 4278911241
-0.86412859 0.46610573 1.8330001 4278518536
-0.86533237 0.46864858 1.8430001 4278518536
-0.86182189 0.46864858 1.8430001 4278584066
-0.85831147 0.46864858 1.8430001 4278584066
-0.85943907 0.47119144 1.853 4278387459
-0.85590953 0.47119144 1.853 4278453252
-0.85238004 0.47119144 1.853 4278584066
-0.85343146 0.47373429 1.863 4278518273
-0.8544448 0.47627717 1.8730001 4278452993
-0.85542005 0.47882003 1.8830001 4278387200
-0.85183334 0.47882003 1.8830001 4278321666
-0.85320187 0.48161715 1.8940001 4278321666
-0.8495943 0.48161715 1.8940001 4278321666
-0.85536665 0.48695716 1.9150001 4278321666
-0.85171908 0.48695716 1.9150001 4278452993
-0.85294288 0.48975429 1.9260001 4278452993
-0.84927434 0.48975429 1.9260001 4278452993
-0.84560573 0.48975429 1.9260001 4278387200
-0.84630859 0.49229717 1.9360001 4278321668
-0.84262103 0.49229717 1.9360001 4278321668
-0.83893341 0.49229717 1.9360001 4278386946
-0.83999151 0.49509433 1.9470001 4278386946
-0.83628291 0.49509433 1.9470001 4278386946
-0.83770579 0.49814576 1.9590001 4278386946
-0.8386572 0.50094289 1.9700001 4278386946
-0.83956671 0.50374001 1.9810001 4278386946
-0.84085625 0.50679147 1.9930001 4278386946
-0.84210008 0.50984287 2.0050001 4278386946
-0.83828104 0.50984287 2.0050001 4278386946
-0.83446193 0.50984287 2.0050001 4278386946
-0.83520001 0.51264 2.016 4278321666
-0.8363086 0.51569146 2.0280001 4278321666
-0.83244574 0.51569146 2.0280001 4278518786
-0.82858288 0.51569146 2.0280001 4278518786
-0.70719337 0.44220287 1.7390001 4278780418
-0.70064288 0.44016859 1.7310001 4278780418
-0.69734573 0.44016859 1.7310001 4279042827
-0.69404858 0.44016859 1.7310001 4279371792
-0.69394386 0.44220287 1.7390001 4281343232
-0.69778007 0.44678003 1.7570001 4282659090
-0.69443333 0.44678003 1.7570001 4282528522
-0.69462669 0.44906858 1.766 4282331143
-0.69126284 0.44906858 1.766 4282069037
-0.69179434 0.45161146 1.7760001 4281937451
-0.68841147 0.45161146 1.7760001 4281937444
-0.68502861 0.45161146 1.7760001 4282134823
-0.68164575 0.45161146 1.7760001 4282201125
-0.67826295 0.45161146 1.7760001 4281806367
-0.67488009 0.45161146 1.7760001 4281805858
-0.67149723 0.45161146 1.7760001 4281542686
-0.66435236 0.44906858 1.766 4281869082
-0.66098857 0.44906858 1.766 4282066461
-0.66134864 0.45161146 1.7760001 4282854176
-0.65796578 0.45161146 1.7760001 4284367415
-0.65458292 0.45161146 1.7760001 4284499984
-0.65120006 0.45161146 1.7760001 4284368398
-0.64781719 0.45161146 1.7760001 4285220127
-0.64443433 0.45161146 1.7760001 4284627990
-0.64105147 0.45161146 1.7760001 4285617152
-0.63766861 0.45161146 1.7760001 4287590933
-0.63428575 0.45161146 1.7760001 4286870129
-0.63090289 0.45161146 1.7760001 4286541164
-0.63070005 0.45390004 1.7850001 4286346084
-0.62730002 0.45390004 1.7850001 4286214498
-0.63054103 0.45873144 1.8040001 4286214509
-0.62710476 0.45873144 1.8040001 4286082923
-0.62366861 0.45873144 1.8040001 4286213735
-0.62023246 0.45873144 1.8040001 4286279528
-0.61679626 0.45873144 1.8040001 4286214241
-0.61642003 0.46102002 1.8130001 4286016862
-0.61296672 0.46102002 1.8130001 4286015836
-0.61287528 0.46356288 1.8230001 4285226320
-0.60940289 0.46356288 1.8230001 4285357915
-0.60593051 0.46356288 1.8230001 4285423708
-0.6057629 0.46610573 1.8330001 4285621843
-0.60555714 0.46864858 1.8430001 4285490257
-0.60204673 0.46864858 1.8430001 4285555798
-0.60178381 0.47119144 1.853 4285555798
-0.60148287 0.47373429 1.863 4285753170
-0.59793425 0.47373429 1.863 4285489998
-0.59438574 0.47373429 1.863 4285818193
-0.59083718 0.47373429 1.863 4285949779
-0.59044099 0.47627717 1.8730001 4285490507
-0.58687335 0.47627717 1.8730001 4284437819
-0.58642 0.47882003 1.8830001 4284569153
-0.58283335 0.47882003 1.8830001 4283845430
-0.5792467 0.47882003 1.8830001 4283779378
-0.57902282 0.48161715 1.8940001 4283253034
-0.57541525 0.48161715 1.8940001 4283251766
-0.57482666 0.48416001 1.904 4283054387
-0.57120001 0.48416001 1.904 4283120180
-0.5708524 0.48695716 1.9150001 4283185973
-0.57046288 0.48975429 1.9260001 4283185973
-0.5697372 0.49229717 1.9360001 4283185973
-0.56604958 0.49229717 1.9360001 4283513907
-0.56236196 0.49229717 1.9360001 4283908665
-0.56184858 0.49509433 1.9470001 4283975982
-0.55814004 0.49509433 1.9470001 4284370740
-0.55443144 0.49509433 1.9470001 4284765486
-0.5507229 0.49509433 1.9470001 4285094451
-0.54701436 0.49509433 1.9470001 4284963889
-0.5497238 0.50094289 1.9700001 4285029682
-0.54901999 0.50374001 1.9810001 4285095712
-0.54854959 0.50679147 1.9930001 4284437782
-0.54803336 0.50984287 2.0050001 4283450380
-0.54719996 0.51264 2.016 4280687104
-0.54335999 0.51264 2.016 4280750336
-0.53952003 0.51264 2.016 4281013504
-0.53568 0.51264 2.016 4282986262
-0.53184003 0.51264 2.016 4285091638
-0.53114289 0.51569146 2.0280001 4284568091
-0.52728003 0.51569146 2.0280001 4284436505
-0.52341717 0.51569146 2.0280001 4284304935
-0.51955432 0.51569146 2.0280001 4284107556
-0.51874292 0.51874292 2.0400002 4284042024
-0.51485717 0.51874292 2.0400002 4284107817
-0.51422763 0.52204865 2.0530002 4284173862
-0.51031721 0.52204865 2.0530002 4284173862
-0.50640672 0.52204865 2.0530002 4284174112
-0.50543332 0.52510005 2.0650001 4284042526
-0.50757146 0.53145719 2.0900002 4283910695
-0.50672287 0.53476286 2.1030002 4283844902
-0.50271714 0.53476286 2.1030002 4283780129
-0.49871147 0.53476286 2.1030002 4283780129
-0.49776384 0.53806859 2.1160002 4283911216
-0.49676669 0.54137433 2.1290002 4283977009
-0.49271145 0.54137433 2.1290002 4284174635
-0.48865622 0.54137433 2.1290002 4283977256
-0.4877876 0.54493433 2.1430001 4283845941
-0.48370573 0.54493433 2.1430001 4283648562
-0.48253337 0.54824001 2.1560001 4283911986
-0.47842669 0.54824001 2.1560001 4283977779
-0.4774 0.55180001 2.1700001 4283977779
-0.47632 0.55535996 2.184 4283977779
-0.47518671 0.55892003 2.1980002 4283846442
-0.47100005 0.55892003 2.1980002 4283780649
-0.46681339 0.55892003 2.1980002 4283845672
-0.46262673 0.55892003 2.1980002 4283385121
-0.46136004 0.56248003 2.2120001 4283450413
-0.46004 0.56604004 2.2260001 4283253034
-0.45580003 0.56604004 2.2260001 4283252016
-0.4546029 0.56985432 2.2410002 4283252016
-0.45334858 0.57366854 2.256 4283252518
-0.44905141 0.57366854 2.256 4283318311
-0.44475427 0.57366854 2.256 4283055129
-0.44338572 0.57748288 2.2710001 4282791957
-0.43906003 0.57748288 2.2710001 4283053104
-0.43473431 0.57748288 2.2710001 4282526760
-0.4304086 0.57748288 2.2710001 4283048975
-0.42889714 0.58129716 2.286 4289233517
-0.42454284 0.58129716 2.286 4290158748
-0.42018858 0.58129716 2.286 4290224541
0.094346665 0.41296002 1.6240001 4291803804
0.097440004 0.41296002 1.6240001 4291672218
0.1000381 0.41092572 1.6160001 4291670690
0.10311619 0.41092572 1.6160001 4291670690
0.10619429 0.41092572 1.6160001 4291540140
0.10879906 0.40914574 1.6090001 4291540140
0.11186381 0.40914574 1.6090001 4291606185
0.11492857 0.40914574 1.6090001 4291671978
0.11799334 0.40914574 1.6090001 4291671465
0.1204562 0.40711144 1.6010001 4291408293
0.12350571 0.40711144 1.6010001 4291276970
0.12655525 0.40711144 1.6010001 4291276970
0.12960477 0.40711144 1.6010001 4291276970
0.13265428 0.40711144 1.6010001 4291540142
0.13570382 0.40711144 1.6010001 4291540651
0.13875334 0.40711144 1.6010001 4291803823
0.14180286 0.40711144 1.6010001 4292000941
0.14485238 0.40711144 1.6010001 4291803562
0.14790191 0.40711144 1.6010001 4291673009
0.15029144 0.40533143 1.5940001 4291804595
0.15332761 0.40533143 1.5940001 4292725945
0.15636382 0.40533143 1.5940001 4294699735
0.1594 0.40533143 1.5940001 4294504177
0.1624362 0.40533143 1.5940001 4292990938
0.1654724 0.40533143 1.5940001 4292002767
0.16850857 0.40533143 1.5940001 4290752700
0.17154478 0.40533143 1.5940001 4290687402
0.17458096 0.40533143 1.5940001 4291213746
0.17761716 0.40533143 1.5940001 4291476155
0.17974667 0.40329719 1.5860001 4293055187
0.18276763 0.40329719 1.5860001 4294636511
0.18578857 0.40329719 1.5860001 4294967018
0.1879762 0.40151715 1.5790001 4294901502
0.19098383 0.40151715 1.5790001 4294901502
0.19399144 0.40151715 1.5790001 4294901502
0.19699906 0.40151715 1.5790001 4294901502
0.20000668 0.40151715 1.5790001 4294901502
0.20301428 0.40151715 1.5790001 4294901502
0.20602192 0.40151715 1.5790001 4294901502
0.20902954 0.40151715 1.5790001 4294901502
0.21203716 0.40151715 1.5790001 4294769387
0.21504477 0.40151715 1.5790001 4293782492
0.2180524 0.40151715 1.5790001 4294308586
0.22106002 0.40151715 1.5790001 4294967030
0.22406763 0.40151715 1.5790001 4294901502
0.22707525 0.40151715 1.5790001 4294835709
0.23008287 0.40151715 1.5790001 4294110428
0.23309049 0.40151715 1.5790001 4290820778
0.23609811 0.40151715 1.5790001 4290491063
0.23804571 0.39973715 1.572 4289504168
0.24104001 0.39973715 1.572 4288976005
0.24403428 0.39973715 1.572 4287133801
0.24577145 0.3977029 1.5640001 4287460967
0.24875049 0.3977029 1.5640001 4287855725
0.25172952 0.3977029 1.5640001 4287593593
0.25470859 0.3977029 1.5640001 4287527800
0.25768763 0.3977029 1.5640001 4288645775
0.26066667 0.3977029 1.5640001 4289698463
0.26499429 0.39973715 1.572 4289501579
0.26798856 0.39973715 1.572 4289764751
0.27098286 0.39973715 1.572 4290157760
0.27397713 0.39973715 1.572 4292131550
0.27820477 0.40151715 1.5790001 4291936956
0.27996573 0.39973715 1.572 4291542198
0.28296 0.39973715 1.572 4291804584
0.2859543 0.39973715 1.572 4293383616
0.28894857 0.39973715 1.572 4294767331
0.29194286 0.39973715 1.572 4294965995
0.29493713 0.39973715 1.572 4294768090
0.29793143 0.39973715 1.572 4289307271
0.30092573 0.39973715 1.572 4288317339
0.30392 0.39973715 1.572 4288975269
0.3069143 0.39973715 1.572 4288910980
0.30833143 0.3977029 1.5640001 4287726706
0.3113105 0.3977029 1.5640001 4288185451
0.31428954 0.3977029 1.5640001 4293909442
0.31726858 0.3977029 1.5640001 4294901243
0.32024765 0.3977029 1.5640001 4294967036
0.32322669 0.3977029 1.5640001 4294835198
0.32620573 0.3977029 1.5640001 4293321959
0.3291848 0.3977029 1.5640001 4291543772
0.33216384 0.3977029 1.5640001 4287267227
0.39064288 0.46356288 1.8230001 4282927486
0.39195335 0.46102002 1.8130001 4281677419
0.39540669 0.46102002 1.8130001 4282925116
0.40106001 0.46356288 1.8230001 4283583046
0.40453237 0.46356288 1.8230001 4283649091
0.40800479 0.46356288 1.8230001 4283649091
0.41147715 0.46356288 1.8230001 4283517255
0.41722572 0.46610573 1.8330001 4282530360
0.42071715 0.46610573 1.8330001 4282922036
0.42420858 0.46610573 1.8330001 4286606444
0.42770001 0.46610573 1.8330001 4288778852
0.43119144 0.46610573 1.8330001 4289370989
0.43468288 0.46610573 1.8330001 4289041814
0.43817428 0.46610573 1.8330001 4289370779
0.4780086 0.43559143 1.7130001 4286870897
0.48127145 0.43559143 1.7130001 4287134069
0.48453429 0.43559143 1.7130001 4287068276
0.48779714 0.43559143 1.7130001 4286410346
0.49106002 0.43559143 1.7130001 4286475898
0.49432287 0.43559143 1.7130001 4287068035
0.49526194 0.43355715 1.705 4287200112
0.49850953 0.43355715 1.705 4287726456
0.50175714 0.43355715 1.705 4287791481
0.50500476 0.43355715 1.705 4287791481
0.50556952 0.4312686 1.6960001 4287725952
0.50880003 0.4312686 1.6960001 4287791745
0.51203048 0.4312686 1.6960001 4287988360
0.51526099 0.4312686 1.6960001 4288317325
0.51849145 0.4312686 1.6960001 4288449679
0.52172196 0.4312686 1.6960001 4288976023
0.52495241 0.4312686 1.6960001 4288450692
0.52818286 0.4312686 1.6960001 4287661176
0.53141332 0.4312686 1.6960001 4287988631
0.53464383 0.4312686 1.6960001 4288383389
0.53787428 0.4312686 1.6960001 4288121482
0.54397619 0.43355715 1.705 4288318861
0.54722381 0.43355715 1.705 4288253581
0.55047143 0.43355715 1.705 4288319374
0.55371904 0.43355715 1.705 4288384665
-1.1637715 0.52262861 2.0400002 4284571268
-1.1598858 0.52262861 2.0400002 4284505475
-1.1492 0.51955432 2.0280001 4284112003
-1.1453372 0.51955432 2.0280001 4283783038
-1.1555458 0.52595913 2.0530002 4282994035
-1.1516354 0.52595913 2.0530002 4282862449
-1.1477249 0.52595913 2.0530002 4283122272
-1.1438144 0.52595913 2.0530002 4283648616
-1.1399039 0.52595913 2.0530002 4283715429
-1.1498266 0.53236377 2.0780001 4284110187
-1.1524858 0.53543812 2.0900002 4284110446
-1.1485049 0.53543812 2.0900002 4284242032
-1.1445239 0.53543812 2.0900002 4284504952
-1.1405429 0.53543812 2.0900002 4284307573
-1.136562 0.53543812 2.0900002 4284439411
-1.132581 0.53543812 2.0900002 4284636790
-1.12212 0.53236377 2.0780001 4284702070
-1.1111666 0.5290333 2.0650001 4284438898
-1.1072334 0.5290333 2.0650001 4284308075
-1.1033001 0.5290333 2.0650001 4284308075
-1.0993668 0.5290333 2.0650001 4284176239
-1.0954334 0.5290333 2.0650001 4284110446
-1.0915 0.5290333 2.0650001 4284110194
-1.0875667 0.5290333 2.0650001 4283518057
-1.0904553 0.53236377 2.0780001 4283517800
-1.0995687 0.53876859 2.1030002 4283715179
-1.0955629 0.53876859 2.1030002 4283715429
-1.0848095 0.53543812 2.0900002 4283781222
-1.0808287 0.53543812 2.0900002 4284503657
-0.93744862 0.46959716 1.8330001 4281280818
-0.93395716 0.46959716 1.8330001 4281477168
-0.9304657 0.46959716 1.8330001 4281674547
-0.92697436 0.46959716 1.8330001 4281674799
-0.92348289 0.46959716 1.8330001 4281674799
-0.91999143 0.46959716 1.8330001 4281740842
-0.91649997 0.46959716 1.8330001 4281543463
-0.91300863 0.46959716 1.8330001 4281477670
-0.90951717 0.46959716 1.8330001 4281411877
-0.90108287 0.46703526 1.8230001 4281215788
-0.89761049 0.46703526 1.8230001 4281149995
-0.8990429 0.46959716 1.8330001 4281149995
-0.89066571 0.46703526 1.8230001 4281149995
-0.88719338 0.46703526 1.8230001 4281280545
-0.88372099 0.46703526 1.8230001 4281083166
-0.88024861 0.46703526 1.8230001 4281019163
-0.87677622 0.46703526 1.8230001 4280163854
-0.87809432 0.46959716 1.8330001 4279634444
-0.87460285 0.46959716 1.8330001 4279042307
-0.87586385 0.47215906 1.8430001 4278780166
-0.87235332 0.47215906 1.8430001 4278714373
-0.8688429 0.47215906 1.8430001 4278518536
-0.86533237 0.47215906 1.8430001 4278518536
-0.86649811 0.47472095 1.853 4278387459
-0.86296856 0.47472095 1.853 4278387459
-0.85943907 0.47472095 1.853 4278387459
-0.85590953 0.47472095 1.853 4278387459
-0.85698003 0.47728285 1.863 4278452993
-0.85801244 0.47984478 1.8730001 4278452993
-0.8544448 0.47984478 1.8730001 4278452993
-0.85542005 0.48240671 1.8830001 4278452993
-0.85183334 0.48240671 1.8830001 4278452993
-0.85320187 0.48522478 1.8940001 4278452993
-0.85407996 0.48778668 1.904 4278386946
-0.85536665 0.49060476 1.9150001 4278452739
-0.85661149 0.4934229 1.9260001 4278452993
-0.85294288 0.4934229 1.9260001 4278452993
-0.84927434 0.4934229 1.9260001 4278321668
-0.84999621 0.49598482 1.9360001 4278321668
-0.84630859 0.49598482 1.9360001 4278321668
-0.84262103 0.49598482 1.9360001 4278321668
-0.84370005 0.4988029 1.9470001 4278321666
-0.83999151 0.4988029 1.9470001 4278321666
-0.84143716 0.50187713 1.9590001 4278386946
-0.84240961 0.5046953 1.9700001 4278386946
-0.84333998 0.50751334 1.9810001 4278386946
-0.84465241 0.51058769 1.9930001 4278386946
-0.84085625 0.51058769 1.9930001 4278386946
-0.84210008 0.51366192 2.0050001 4278452739
-0.83828104 0.51366192 2.0050001 4278386946
-0.83903998 0.51648003 2.016 4278452739
-0.83520001 0.51648003 2.016 4278386946
-0.8363086 0.51955432 2.0280001 4278386946
-0.83244574 0.51955432 2.0280001 4278518536
-0.82858288 0.51955432 2.0280001 4278518536
-0.70394003 0.44346571 1.7310001 4278518786
-0.70064288 0.44346571 1.7310001 4278518786
-0.69734573 0.44346571 1.7310001 4278386946
-0.69404858 0.44346571 1.7310001 4278518532
-0.69075143 0.44346571 1.7310001 4280683776
-0.6942057 0.44782096 1.748 4282197014
-0.69443333 0.45012668 1.7570001 4283119117
-0.69462669 0.45243239 1.766 4282855945
-0.69126284 0.45243239 1.766 4281937694
-0.69179434 0.45499432 1.7760001 4281937694
-0.68841147 0.45499432 1.7760001 4281806115
-0.68502861 0.45499432 1.7760001 4281871908
-0.68164575 0.45499432 1.7760001 4281871658
-0.67444384 0.45243239 1.766 4281674279
-0.67108005 0.45243239 1.766 4281542693
-0.66771615 0.45243239 1.766 4281345314
-0.66435236 0.45243239 1.766 4281345048
-0.66098857 0.45243239 1.766 4280950290
-0.66134864 0.45499432 1.7760001 4283051788
-0.65796578 0.45499432 1.7760001 4284630820
-0.65458292 0.45499432 1.7760001 4284499743
-0.65120006 0.45499432 1.7760001 4284499743
-0.64781719 0.45499432 1.7760001 4284696354
-0.64443433 0.45499432 1.7760001 4284038424
-0.63744193 0.45243239 1.766 4284695040
-0.63407809 0.45243239 1.766 4286537232
-0.63428575 0.45499432 1.7760001 4286868302
-0.63090289 0.45499432 1.7760001 4286802509
-0.62752002 0.45499432 1.7760001 4286476900
-0.62730002 0.45730001 1.7850001 4286345314
-0.62704569 0.45960569 1.794 4286148203
-0.62362856 0.45960569 1.794 4286148203
-0.62021142 0.45960569 1.794 4286082919
-0.62023246 0.46216765 1.8040001 4286017126
-0.61679626 0.46216765 1.8040001 4286082662
-0.61642003 0.46447334 1.8130001 4285885283
-0.61296672 0.46447334 1.8130001 4285950043
-0.61287528 0.46703526 1.8230001 4285292113
-0.60940289 0.46703526 1.8230001 4285226072
-0.60593051 0.46703526 1.8230001 4285357658
-0.6057629 0.46959716 1.8330001 4285752150
-0.60555714 0.47215906 1.8430001 4285686357
-0.60204673 0.47215906 1.8430001 4285490005
-0.59853619 0.47215906 1.8430001 4285490005
-0.59825426 0.47472095 1.853 4285818193
-0.59793425 0.47728285 1.863 4285620814
-0.59438574 0.47728285 1.863 4285620816
-0.59083718 0.47728285 1.863 4285686609
-0.59044099 0.47984478 1.8730001 4285424714
-0.58687335 0.47984478 1.8730001 4284569405
-0.58642 0.48240671 1.8830001 4284831298
-0.58283335 0.48240671 1.8830001 4283975989
-0.5792467 0.48240671 1.8830001 4283909692
-0.57902282 0.48522478 1.8940001 4283251762
-0.57541525 0.48522478 1.8940001 4283120430
-0.57482666 0.48778668 1.904 4282857258
-0.57450002 0.49060476 1.9150001 4283054124
-0.5708524 0.49060476 1.9150001 4283054124
-0.57046288 0.4934229 1.9260001 4283120419
-0.5697372 0.49598482 1.9360001 4283054626
-0.56604958 0.49598482 1.9360001 4283185453
-0.56236196 0.49598482 1.9360001 4283448625
-0.56184858 0.4988029 1.9470001 4283646245
-0.55814004 0.4988029 1.9470001 4284304175
-0.55129904 0.49598482 1.9360001 4284371500
-0.54761142 0.49598482 1.9360001 4284634672
-0.54701436 0.4988029 1.9470001 4284635436
-0.54330575 0.4988029 1.9470001 4284832815
-0.54597145 0.5046953 1.9700001 4285030194
-0.54524672 0.50751334 1.9810001 4284372264
-0.54475337 0.51058769 1.9930001 4283582498
-0.54421431 0.51366192 2.0050001 4280753408
-0.54335999 0.51648003 2.016 4281079296
-0.53952003 0.51648003 2.016 4281013504
-0.53568 0.51648003 2.016 4282855177
-0.53184003 0.51648003 2.016 4285092139
-0.528 0.51648003 2.016 4284634134
-0.52728003 0.51955432 2.0280001 4284502548
-0.52341717 0.51955432 2.0280001 4284304165
-0.51955432 0.51955432 2.0280001 4284238372
-0.51569146 0.51955432 2.0280001 4284107817
-0.51485717 0.52262861 2.0400002 4284107817
-0.51097149 0.52262861 2.0400002 4283910688
-0.50708574 0.52262861 2.0400002 4284108067
-0.50640672 0.52595913 2.0530002 4283911717
-0.50543332 0.5290333 2.0650001 4283648545
-0.50757146 0.53543812 2.0900002 4283647523
-0.50359046 0.53543812 2.0900002 4283647523
-0.50271714 0.53876859 2.1030002 4283647523
-0.49871147 0.53876859 2.1030002 4283647523
-0.49776384 0.54209906 2.1160002 4283713321
-0.49676669 0.54542959 2.1290002 4284042286
-0.49271145 0.54542959 2.1290002 4284043318
-0.48865622 0.54542959 2.1290002 4283780146
-0.4877876 0.54901624 2.1430001 4283648305
-0.48370573 0.54901624 2.1430001 4283582512
-0.48253337 0.55234671 2.1560001 4283845423
-0.47842669 0.55234671 2.1560001 4283977009
-0.4774 0.55593336 2.1700001 4283846191
-0.47326669 0.55593336 2.1700001 4283780398
-0.47216001 0.55952001 2.184 4283780398
-0.47100005 0.56310666 2.1980002 4283648812
-0.46681339 0.56310666 2.1980002 4283714348
-0.46262673 0.56310666 2.1980002 4283188004
-0.46136004 0.56669337 2.2120001 4283383080
-0.45714667 0.56669337 2.2120001 4283317287
-0.45580003 0.57028002 2.2260001 4283186725
-0.4546029 0.57412291 2.2410002 4283120932
-0.45334858 0.57796574 2.256 4283252016
-0.44905141 0.57796574 2.256 4283186223
-0.44475427 0.57796574 2.256 4282923284
-0.44338572 0.58180863 2.2710001 4282594319
-0.43906003 0.58180863 2.2710001 4283248166
-0.43473431 0.58180863 2.2710001 4284432440
-0.4304086 0.58180863 2.2710001 4286733901
-0.42889714 0.58565146 2.286 4289628793
-0.42454284 0.58565146 2.286 4290224289
-0.42018858 0.58565146 2.286 4290092703
0.092096195 0.41989622 1.6390001 4291279012
0.094346665 0.41605335 1.6240001 4291411373
0.097440004 0.41605335 1.6240001 4291082408
0.1000381 0.41400382 1.6160001 4291409067
0.10311619 0.41400382 1.6160001 4291409067
0.10619429 0.41400382 1.6160001 4291409067
0.10879906 0.41221049 1.6090001 4291409067
0.11186381 0.41221049 1.6090001 4291408295
0.11492857 0.41221049 1.6090001 4291408295
0.11799334 0.41221049 1.6090001 4291408295
0.1204562 0.41016096 1.6010001 4291408295
0.12350571 0.41016096 1.6010001 4291342763
0.12655525 0.41016096 1.6010001 4291342763
0.12960477 0.41016096 1.6010001 4291276968
0.13265428 0.41016096 1.6010001 4291605933
0.13570382 0.41016096 1.6010001 4291605933
0.13875334 0.41016096 1.6010001 4291737519
0.14180286 0.41016096 1.6010001 4291935407
0.14485238 0.41016096 1.6010001 4291672235
0.14725524 0.40836766 1.5940001 4291410098
0.15029144 0.40836766 1.5940001 4293054923
0.15332761 0.40836766 1.5940001 4293254110
0.15557905 0.40631813 1.5860001 4294966270
0.15860002 0.40631813 1.5860001 4294901502
0.16162096 0.40631813 1.5860001 4294638330
0.16464192 0.40631813 1.5860001 4292860897
0.16766286 0.40631813 1.5860001 4291018693
0.17068382 0.40631813 1.5860001 4291148212
0.17370477 0.40631813 1.5860001 4291477177
0.17672573 0.40631813 1.5860001 4292069316
0.17974667 0.40631813 1.5860001 4294372071
0.18276763 0.40631813 1.5860001 4294835196
0.18578857 0.40631813 1.5860001 4294966782
0.1879762 0.4045248 1.5790001 4294901502
0.19098383 0.4045248 1.5790001 4294901502
0.19313143 0.40273145 1.572 4294901502
0.19612572 0.40273145 1.572 4294901502
0.20000668 0.4045248 1.5790001 4294901502
0.20301428 0.4045248 1.5790001 4294901502
0.20602192 0.4045248 1.5790001 4294901502
0.20902954 0.4045248 1.5790001 4294901502
0.21203716 0.4045248 1.5790001 4294901502
0.21504477 0.4045248 1.5790001 4294901502
0.2180524 0.4045248 1.5790001 4294835196
0.22106002 0.4045248 1.5790001 4294966782
0.22406763 0.4045248 1.5790001 4294901502
0.22707525 0.4045248 1.5790001 4294901502
0.23008287 0.4045248 1.5790001 4294901502
0.23205714 0.40273145 1.572 4292006610
0.23505142 0.40273145 1.572 4290622404
0.23804571 0.40273145 1.572 4289832888
0.24104001 0.40273145 1.572 4289634712
0.24403428 0.40273145 1.572 4286937199
0.24577145 0.40068194 1.5640001 4286672732
0.24875049 0.40068194 1.5640001 4287001697
0.25172952 0.40068194 1.5640001 4286804334
0.25470859 0.40068194 1.5640001 4287791229
0.25768763 0.40068194 1.5640001 4289631632
0.26066667 0.40068194 1.5640001 4289829011
0.26499429 0.40273145 1.572 4289632402
0.26798856 0.40273145 1.572 4290421918
0.27098286 0.40273145 1.572 4291212217
0.27397713 0.40273145 1.572 4292001733
0.27697143 0.40273145 1.572 4291936188
0.27996573 0.40273145 1.572 4291804602
0.28296 0.40273145 1.572 4291345321
0.2859543 0.40273145 1.572 4291805872
0.28894857 0.40273145 1.572 4293581517
0.29194286 0.40273145 1.572 4294965483
0.29493713 0.40273145 1.572 4294900478
0.29793143 0.40273145 1.572 4288781729
0.30092573 0.40273145 1.572 4287659888
0.30392 0.40273145 1.572 4289041541
0.3069143 0.40273145 1.572 4289632665
0.30833143 0.40068194 1.5640001 4287724668
0.3113105 0.40068194 1.5640001 4287986800
0.31428954 0.40068194 1.5640001 4294895065
0.31726858 0.40068194 1.5640001 4294835198
0.32024765 0.40068194 1.5640001 4294835198
0.32322669 0.40068194 1.5640001 4294372848
0.32620573 0.40068194 1.5640001 4293517539
0.3291848 0.40068194 1.5640001 4292530917
0.33216384 0.40068194 1.5640001 4288912302
0.33685714 0.40273145 1.572 4286214539
0.39195335 0.46447334 1.8130001 4281477443
0.39540669 0.46447334 1.8130001 4282398504
0.40106001 0.46703526 1.8230001 4283582778
0.40453237 0.46703526 1.8230001 4283779144
0.40800479 0.46703526 1.8230001 4283844937
0.41147715 0.46703526 1.8230001 4283649091
0.41722572 0.46959716 1.8330001 4282991161
0.42071715 0.46959716 1.8330001 4283055377
0.42420858 0.46959716 1.8330001 4285226546
0.42770001 0.46959716 1.8330001 4286870620
0.43119144 0.46959716 1.8330001 4289568133
0.43468288 0.46959716 1.8330001 4289173686
0.44056478 0.47215906 1.8430001 4288713135
0.44407526 0.47215906 1.8430001 4286742148
0.47474575 0.43885431 1.7130001 4286871415
0.4780086 0.43885431 1.7130001 4286871147
0.48127145 0.43885431 1.7130001 4287200112
0.48453429 0.43885431 1.7130001 4287134051
0.48779714 0.43885431 1.7130001 4286410328
0.49106002 0.43885431 1.7130001 4286409065
0.49432287 0.43885431 1.7130001 4287395960
0.49526194 0.43680477 1.705 4287528561
0.49850953 0.43680477 1.705 4287989112
0.50175714 0.43680477 1.705 4287988347
0.50500476 0.43680477 1.705 4287856761
0.50556952 0.43449908 1.6960001 4287594368
0.50880003 0.43449908 1.6960001 4287791747
0.51203048 0.43449908 1.6960001 4287791495
0.5128305 0.43244955 1.6880001 4288252046
0.51604575 0.43244955 1.6880001 4288449688
