# .PCD v0.7 - Point Cloud Data file format
VERSION 0.7
FIELDS x y z rgba
SIZE 4 4 4 4
TYPE F F F U
COUNT 1 1 1 1
WIDTH 1116
HEIGHT 1
VIEWPOINT 0 0 0 1 0 0 0
POINTS 1116
DATA ascii
-0.15696751 0.095043756 0.64455318 8281168
-0.031760763 0.099235438 0.64880008 7894156
-0.024242811 0.097661436 0.64695114 7563139
-0.014467807 0.095600232 0.6450454 8025225
-0.0069393432 0.092917211 0.64203459 7893383
-0.16301522 0.10604174 0.64200002 6770241
-0.15790638 0.10321362 0.64555997 6835521
-0.033339128 0.10125025 0.64825004 9603236
-0.023858974 0.10127188 0.64207697 8025490
-0.015762109 0.10136633 0.64007151 8551051
-0.17042094 0.11504953 0.64600003 5125683
-0.16594616 0.11235814 0.64433336 5389621
-0.052695561 0.13697934 0.64755559 2630451
-0.04572431 0.1376739 0.64428121 2696498
-0.037701085 0.13831417 0.64053333 2827577
-0.062078178 0.14631325 0.64641666 7563910
-0.055034745 0.14415415 0.64506769 3618645
-0.045570008 0.14274631 0.64230776 2893625
-0.038575597 0.14194989 0.64037508 3221820
0.087866671 -0.28054574 0.65900004 9400656
0.096653335 -0.28117335 0.65900004 8349506
0.10655878 -0.28078276 0.65871429 5719079
0.11601987 -0.2810837 0.65900004 1314833
0.12232414 -0.28103143 0.65866673 1051913
0.069097556 -0.27200016 0.65871429 9992529
0.075182669 -0.27254605 0.65786678 9729616
0.085399009 -0.27458116 0.65758502 9400398
0.09517552 -0.27476004 0.65813595 7560001
0.10539423 -0.27458569 0.65773809 4996136
0.11532233 -0.27451912 0.65809423 1840401
0.12277227 -0.2751061 0.65851742 1249037
0.056609631 -0.26258597 0.65852642 10255444
0.065501004 -0.26431376 0.65768099 9860686
0.074970461 -0.26472345 0.65574574 9597774
0.08492028 -0.26474497 0.65561283 9071436
0.095229685 -0.26489332 0.65670037 6441783
0.10521778 -0.26476091 0.65759414 3943972
0.11543363 -0.26465216 0.65776706 2694682
0.12154889 -0.26736575 0.65900004 1512464
0.048093539 -0.25288141 0.65852636 8744537
0.054848675 -0.25484735 0.65615261 9204566
0.064850807 -0.25503662 0.65473223 9334860
0.07504385 -0.25517702 0.6548813 9005129
0.084760055 -0.25456405 0.65490752 8676428
0.095118523 -0.25453809 0.65631455 7887943
0.10456461 -0.25630111 0.65813357 4140328
0.11438268 -0.25751156 0.65820014 3089436
0.038136747 -0.24188015 0.65825003 2628380
0.044965137 -0.24434958 0.65637267 4076074
0.053121302 -0.24607274 0.65292859 5128501
0.065410212 -0.24837954 0.65272236 6772288
0.07480602 -0.24805813 0.65344006 7032385
0.085340776 -0.24764885 0.65674984 7558727
0.0955709 -0.24651073 0.65845031 8281938
0.10323607 -0.2443168 0.65762514 7953483
0.04634871 -0.23563892 0.65629995 5192486
0.054417603 -0.23493569 0.65320903 5653293
0.064233713 -0.2329935 0.65158153 5652782
0.075296171 -0.23322223 0.65285367 5257517
0.084400497 -0.23294064 0.65521938 5585200
0.094376154 -0.23318127 0.65786374 7032379
0.10657943 -0.23626262 0.65715402 7495250
0.11395769 -0.23284668 0.65900004 4996912
0.047807075 -0.22704683 0.65761906 2825748
0.055144526 -0.2250022 0.65462136 4534827
0.064569674 -0.22536963 0.65459681 5717815
0.075029388 -0.2254533 0.65668076 6704179
0.085054673 -0.22513638 0.6566565 7493184
0.094731972 -0.2252911 0.65794683 8479309
0.10104667 -0.22154956 0.65900004 9662041
0.049581908 -0.21778381 0.65900004 6244399
0.056845322 -0.21654981 0.65841383 7950907
0.064798929 -0.21516943 0.65847307 9138010
0.075357705 -0.21526083 0.65793371 8939587
0.085154176 -0.21539059 0.65743786 9597520
0.095142595 -0.21532337 0.65723461 9860186
0.10251724 -0.21421221 0.65854555 9859677
-0.0040386012 -0.20340149 0.65840644 11371624
0.0039772969 -0.20309752 0.65719348 10646619
0.011297144 -0.2008381 0.65900004 9922394
0.058132298 -0.20443572 0.65827274 10320979
0.064940996 -0.20511346 0.65638119 9992012
0.07492739 -0.20468482 0.65501577 9925456
0.084941708 -0.20485581 0.65578127 9925468
0.095088638 -0.20543224 0.65760356 10057316
0.10276527 -0.20747626 0.65857905 10121823
-0.010669525 -0.19581714 0.65900004 10585189
-0.0046381946 -0.19487055 0.65610361 10318932
0.0050618462 -0.1946222 0.65527672 9659988
0.01446385 -0.19423759 0.6578573 10382682
0.020711429 -0.19205146 0.65900004 11041130
0.047185954 -0.19313757 0.65885013 11306079
0.055433515 -0.19494501 0.6576494 10779734
0.064775668 -0.19503792 0.6545592 9858126
0.074657239 -0.19501758 0.65391213 9858390
0.084910229 -0.19479778 0.65432185 10253922
0.094855279 -0.19489773 0.6568169 10057057
0.10270897 -0.19328465 0.6582942 10056804
-0.0043397336 -0.18853958 0.65840012 8280126
0.0041964841 -0.18929304 0.65830773 6373178
0.013752318 -0.18905619 0.65833342 5318168
0.039037906 -0.18163298 0.65900004 10317377
0.045196097 -0.1848295 0.65632814 11371098
0.054747935 -0.18478099 0.65415239 10976855
0.064772874 -0.18511923 0.652758 10516310
0.07473249 -0.18498334 0.65267169 10187869
0.084606141 -0.18483466 0.65423173 10121825
0.095115572 -0.18522465 0.65704703 9925469
0.10258466 -0.18573177 0.65831053 9991269
0.03688848 -0.17303409 0.65861923 9662032
0.044774085 -0.17495695 0.65527868 10384973
0.054811094 -0.17519939 0.65313113 10384979
0.064573109 -0.17513381 0.65272731 10187350
0.074690752 -0.17488256 0.65376103 10318941
0.084884956 -0.17475893 0.65534365 9990494
0.095173247 -0.17519087 0.65736949 9662555
0.10165863 -0.17802286 0.65844446 9925991
0.028870478 -0.16380857 0.65899998 8282184
0.035036471 -0.16492432 0.65752333 8676687
0.045047827 -0.16493432 0.65499985 9333322
0.054606505 -0.16517626 0.652354 9793101
0.064932115 -0.16502362 0.65327251 9858644
0.074690431 -0.16473316 0.65451509 10056028
0.085154995 -0.16507314 0.6568926 9727581
0.094066858 -0.16584328 0.65884811 9464666
0.037349425 -0.15678601 0.65832156 7163445
0.045013722 -0.15505651 0.65650016 8807236
0.054883726 -0.15505359 0.65415478 9333324
0.064654522 -0.15484855 0.65422046 8939086
0.07501176 -0.15479 0.65573847 9267801
0.084503077 -0.15557511 0.65808797 9399388
0.03954 -0.14749049 0.65900004 8611387
0.045251969 -0.14556587 0.65817785 8741696
0.05505586 -0.14514911 0.65693766 8741450
0.065045558 -0.14509621 0.65670323 8675663
0.074643314 -0.14565399 0.65780383 9201493
0.082061186 -0.14733358 0.65899998 9333084
0.047489844 -0.13974987 0.65900004 8281407
0.054985907 -0.13800123 0.65874213 8018499
0.065078102 -0.13761039 0.6584447 8281674
0.072132759 -0.13861923 0.65860003 8741713
0.098731428 -0.071409523 0.65200007 6772328
0.10526282 -0.072655134 0.65740013 9734051
0.11108857 -0.070920952 0.65900004 9340333
0.098596551 -0.068301819 0.65036368 9471405
0.10556725 -0.065067761 0.65337998 9010344
0.11148291 -0.06486845 0.65786672 8681124
0.21181144 -0.060786668 0.65799999 9604760
0.076958284 -0.051428385 0.65060008 2565182
0.082879052 -0.051338099 0.65518188 2038571
0.10693248 -0.054965049 0.65196973 8944807
0.11412871 -0.054090455 0.65635717 9141928
0.12248933 -0.051026095 0.65820003 9536676
0.19587547 -0.051626943 0.65609527 8946325
0.20565811 -0.053683586 0.65363461 8090763
0.21189015 -0.057318449 0.65149999 9208988
0.06843552 -0.041520413 0.65071434 4272992
0.075627454 -0.044002824 0.65354168 3748180
0.083906732 -0.045615591 0.65619588 2695995
0.10895239 -0.048904765 0.65000004 9404075
0.1157705 -0.04654808 0.65215158 9207724
0.12517729 -0.045023032 0.65475935 9142946
0.13511451 -0.043898847 0.65438485 8682910
0.14107837 -0.043422583 0.6525715 8814757
0.16606857 -0.042051662 0.65583998 8354197
0.17530735 -0.042415567 0.65609378 8288916
0.18438184 -0.045041703 0.65304875 8945297
0.19549656 -0.047026321 0.65117639 8353682
0.20222193 -0.047819689 0.65066671 7827591
0.048551027 -0.032278918 0.65000004 8546125
0.054167923 -0.032965798 0.65031403 6970734
0.065566182 -0.03408305 0.65460002 4866666
0.072933838 -0.037668072 0.65747374 3946329
0.12938096 -0.039000001 0.65000004 9865127
0.13402382 -0.038845241 0.65000004 9338778
0.14171074 -0.031739321 0.65714288 4077912
0.15793517 -0.034022678 0.65400004 6710383
0.16333583 -0.038214553 0.65183336 8287374
0.17381953 -0.039110005 0.65183342 7894420
0.048513338 -0.023143267 0.6518572 9138777
0.055107228 -0.024744879 0.65401667 6050930
0.06323272 -0.025781186 0.65770286 5130345
0.10640376 -0.02253573 0.6579259 4143176
0.1150258 -0.023754429 0.65738314 4339795
0.12434359 -0.02302327 0.65775007 3880273
0.136856 -0.023216847 0.65389651 4603486
0.1448611 -0.025143625 0.65543354 4603739
0.15237546 -0.027545083 0.65509522 5854308
0.049446478 -0.016894858 0.65720004 9533281
0.055107653 -0.016904501 0.65752524 6050928
0.061594862 -0.017436383 0.65860003 5393768
0.087301627 -0.011366571 0.65570009 7301762
0.095678397 -0.013921438 0.65589356 6972799
0.10480677 -0.01497585 0.655047 5919596
0.11474102 -0.014947345 0.65418446 4998751
0.1243484 -0.016878594 0.65382504 4011092
0.13503426 -0.018044604 0.65147996 4537951
0.14182369 -0.018491428 0.65028572 4670048
0.076578245 -0.0022450003 0.65425003 8221831
0.084871091 -0.0047734929 0.65320015 7827079
0.095187515 -0.0054439874 0.65181357 7300996
0.10431871 -0.0066267131 0.65200001 7367044
0.11204097 -0.0089462595 0.65100002 6248821
0.059080955 0.0093285721 0.65300006 8877738
0.065851539 0.0069898753 0.65168434 8419218
0.074243292 0.0030368809 0.65127504 8024971
0.082616195 0.0019457145 0.65014291 7696265
0.047941804 0.017814815 0.65000004 7696262
0.054558609 0.015528139 0.65100002 8222859
0.06397932 0.012078639 0.65042859 7958919
0.038114477 0.027561335 0.65180004 8483974
0.04460945 0.024760226 0.65125644 8681355
0.051380955 0.021891778 0.6500001 8485007
-0.21262982 0.032539185 0.65528578 7693369
-0.20888343 0.033633146 0.65160006 8546109
-0.19254272 0.035176486 0.65531045 14464398
-0.18477762 0.036329538 0.65502095 14332296
-0.17565142 0.037243869 0.65686506 14266248
-0.16857238 0.03916619 0.65799999 13542270
0.02752503 0.037295289 0.65516675 8485516
0.033786304 0.03423151 0.65208828 8485006
0.040857144 0.030333335 0.65000004 8352381
-0.18385716 0.040238101 0.65000004 13017211
-0.17401707 0.04186279 0.65318531 12753016
-0.16477378 0.044951029 0.65578175 12555383
-0.15684135 0.047805902 0.65761912 12094837
0.007316032 0.049335085 0.65850008 8747673
0.015945328 0.046607271 0.65443254 8353676
0.023816638 0.04278503 0.6517188 8550280
0.030333335 0.040238097 0.65000004 8746894
-0.16171981 0.051427621 0.65060008 11700338
-0.15472548 0.054632731 0.65356266 11305841
-0.14977334 0.059533339 0.65800005 10451566
-0.0016300001 0.057911523 0.65810007 8484749
0.005315125 0.055205751 0.65535605 8485517
0.012874431 0.05351593 0.65136367 8024712
-0.15157257 0.06307058 0.6512 10451564
-0.14801799 0.066129111 0.65611124 9925223
-0.012652779 0.068488821 0.65875 8353672
-0.0047708736 0.065211535 0.65568352 8024712
0.0042476729 0.06406451 0.65190566 7563392
0.010936509 0.060460322 0.65000004 6973054
-0.15042858 0.073666677 0.65000004 9596772
-0.1468361 0.074852839 0.65412009 9267550
-0.021797743 0.078564174 0.65862501 8287885
-0.014634862 0.075422451 0.65715522 7958402
-0.0049382276 0.074797399 0.65375382 7892357
0.0020925002 0.072150007 0.65099996 7367294
-0.15083167 0.087831907 0.65175009 8346712
-0.14768572 0.084317647 0.65525007 8412757
-0.033151433 0.087754771 0.65795249 8485005
-0.024602706 0.085385226 0.65578967 8747150
-0.015139909 0.084643669 0.65293747 8222091
-0.0066210586 0.081439361 0.65166664 8485003
-0.15222852 0.095277496 0.65258831 7624011
-0.14864226 0.092704289 0.6557858 7623756
-0.041561536 0.097018473 0.65350002 8222089
-0.034976896 0.094847433 0.65344596 8484233
-0.02515183 0.092401013 0.65163153 10064048
-0.01813619 0.091294296 0.65100002 10788016
-0.15558103 0.10345573 0.65607154 6638656
-0.042439155 0.1015926 0.65000004 8486035
-0.038089719 0.10136934 0.65140003 8944789
-0.16838096 0.11700001 0.65000004 4268578
-0.062558733 0.13758446 0.65466678 4143441
-0.05764579 0.13763233 0.65300006 2959424
-0.06387905 0.14350051 0.65424138 6183273
-0.058809526 0.14052381 0.65000004 7430805
0.054611668 -0.28322783 0.66679162 10321496
0.064521879 -0.28271458 0.66445458 10255444
0.075588658 -0.28157449 0.66141677 9860944
0.084086403 -0.28184682 0.66100013 9597519
0.093169525 -0.28175688 0.66100013 8809036
0.10261238 -0.28223649 0.66100007 7231038
0.11111096 -0.28234142 0.66100001 2561809
0.12737101 -0.28158918 0.66118193 1051656
0.13496323 -0.28191477 0.66295838 1117451
0.14310762 -0.28270292 0.66657901 1117451
0.038171429 -0.27101716 0.66800004 10123856
0.046212919 -0.27242646 0.66677779 10451796
0.055087928 -0.27483898 0.66491997 10320981
0.064828269 -0.27523601 0.66230899 10058322
0.075103544 -0.27784005 0.66109538 9860689
0.081208572 -0.27887905 0.66100001 9663055
0.12733914 -0.27402776 0.66134477 1183245
0.13490942 -0.27477467 0.66339999 1248783
0.1430673 -0.27646118 0.66650003 1051915
0.036281515 -0.26406524 0.66670722 10978140
0.045303173 -0.26509139 0.66277778 10715226
0.054264314 -0.26652333 0.66109371 10386773
0.062322862 -0.26880667 0.66100001 10255440
0.12585346 -0.26473278 0.66173464 1512211
0.13487941 -0.26530966 0.66561997 1577234
0.14499284 -0.26276368 0.66745454 1183246
0.15077715 -0.26274666 0.6680001 1117709
0.029888164 -0.25500464 0.66771442 9597778
0.035379399 -0.25482062 0.66415781 9269332
0.044237826 -0.25619552 0.66133332 9992794
0.10641616 -0.25245965 0.6615501 5126960
0.11458503 -0.25303608 0.66126311 2891802
0.12463208 -0.25493121 0.66170567 1774866
0.13493651 -0.25523975 0.66547453 1709074
0.14393911 -0.25556377 0.66731977 1314575
0.029856192 -0.24901335 0.66700006 4008993
0.036107227 -0.24714206 0.66286212 4076590
0.041338734 -0.24950127 0.66100001 5655372
0.095058098 -0.24488477 0.66100001 6836303
0.10634884 -0.24682763 0.66145456 8020046
0.11492066 -0.24508068 0.66219366 3680041
0.12504309 -0.24521278 0.66414064 2299927
0.13474114 -0.24587657 0.66698056 1840400
0.14310397 -0.2463932 0.66729409 1446161
0.038258824 -0.23536082 0.66435295 4336669
0.042175326 -0.23428111 0.66182613 4863011
0.098910004 -0.23310097 0.66150004 7096891
0.10397603 -0.23306327 0.66166669 7163962
0.1143858 -0.23486418 0.66200012 6378065
0.12469582 -0.2384607 0.66572219 3682878
0.0054239566 -0.22193831 0.66669244 10582884
0.015614783 -0.2218432 0.66743481 6900798
0.020962859 -0.22042763 0.66700006 3810847
0.038760763 -0.22583067 0.66720003 4533267
0.043962117 -0.22436368 0.66381019 4665630
0.052610207 -0.22204205 0.66100001 5258540
0.068240389 -0.22197011 0.66100007 8152154
0.071136191 -0.22474001 0.66100001 5848343
0.10499464 -0.22509514 0.6615262 9465435
0.11472169 -0.22470669 0.6620146 5258798
0.12324745 -0.22366768 0.66479307 2496793
0.0054374542 -0.21494617 0.66446936 10515290
0.015366239 -0.2149823 0.66641378 8609358
0.022192674 -0.21465522 0.66743475 7031102
0.038764052 -0.21733215 0.66725004 5651224
0.044846475 -0.21474703 0.66462475 7230001
0.054140601 -0.21421166 0.66195345 8215615
0.068932854 -0.21875952 0.66100001 7886911
0.10703979 -0.21554881 0.66155553 9333849
0.11501084 -0.21478881 0.66311103 3745056
0.12408248 -0.21496075 0.6653778 2103060
0.13105524 -0.21439619 0.66800004 3545388
-0.0048269844 -0.20554033 0.66133344 11569260
0.006077101 -0.20787081 0.66195464 10186073
0.015266892 -0.20555291 0.66392154 9659219
0.024922544 -0.20325769 0.66716659 9593934
0.034551099 -0.20181246 0.66699994 9858636
0.045485981 -0.20470476 0.66576469 9729357
0.053452283 -0.20572306 0.66192311 9795404
0.098835237 -0.20207714 0.66100001 9925474
0.10555002 -0.20419721 0.66141868 9794146
0.1148838 -0.2054193 0.6650508 6244935
0.12221249 -0.20527025 0.6670571 4140332
-0.0088133337 -0.19326381 0.66100001 9663057
0.01826762 -0.19842039 0.66140002 9986645
0.025654716 -0.19502431 0.66481143 9330255
0.035463195 -0.19491097 0.66500008 10647634
0.044245895 -0.19651216 0.66230315 10582357
0.050991427 -0.19892952 0.66100001 10384721
0.10621742 -0.19640309 0.66144449 10451562
0.11430256 -0.19471699 0.66345471 10189936
0.12044275 -0.19532192 0.66755563 9796463
-0.0036383073 -0.18504116 0.66111124 7031853
0.0052334215 -0.18508743 0.66463083 6109992
0.01539172 -0.18492381 0.66517454 5058340
0.025197074 -0.18520622 0.66507488 7948600
0.035016846 -0.18518141 0.66257131 10054989
0.040919047 -0.18948667 0.66100001 11503453
0.10732146 -0.18493815 0.66165507 9860966
0.11471169 -0.18502337 0.66476792 9795694
0.12013201 -0.18750648 0.66740006 9598826
0.007160258 -0.17574076 0.667081 6112300
0.015150174 -0.17513636 0.66600013 6770487
0.025266411 -0.17499985 0.66333926 8347211
0.0342221 -0.17648178 0.66160005 10122323
0.10560966 -0.17447242 0.66190571 9860455
0.11397105 -0.17541637 0.66563261 9861229
0.0084434468 -0.1656976 0.66733336 8082237
0.015113227 -0.16497518 0.66501617 8345408
0.024502493 -0.16520469 0.6616109 8479562
0.096736826 -0.16237515 0.66100013 9530207
0.1046566 -0.16522314 0.66272575 9794149
0.11303671 -0.16510776 0.66678131 9992301
0.008902573 -0.153254 0.66770011 9065283
0.015214855 -0.15520355 0.6658439 8013113
0.025324935 -0.15524021 0.66299975 6239530
0.033984512 -0.15397166 0.6617316 5517856
0.087363914 -0.15143545 0.66100007 9136476
0.09469787 -0.15479086 0.66136032 9333594
0.10488783 -0.15524 0.66463757 9794148
0.11203423 -0.15660805 0.66743755 9794665
0.0080862343 -0.14608641 0.66718191 7620147
0.015352594 -0.14478269 0.6655972 7949113
0.025085395 -0.1450859 0.66420907 8805449
0.035063505 -0.14495423 0.66287088 9004359
0.041926287 -0.14088742 0.66100001 8544324
0.078690469 -0.14214648 0.66100007 9201752
0.085499249 -0.14429078 0.6618399 9136474
0.094909482 -0.14504693 0.66477466 9005399
0.10408592 -0.14708567 0.66737938 9596768
0.0095428573 -0.13932572 0.66800004 6241577
0.016800875 -0.13723449 0.66724002 7621944
0.02559828 -0.13493073 0.66628367 8806723
0.035346907 -0.1350641 0.66430306 8741703
0.045291848 -0.13475664 0.66153938 8544326
0.055596128 -0.13305074 0.66134155 8083779
0.065536387 -0.13271011 0.66148567 8017991
0.075293534 -0.13444771 0.66217655 8544593
0.084760815 -0.134719 0.66376805 8676180
0.09176708 -0.13633253 0.66714299 8544848
0.01707927 -0.12131665 0.66800016 9136974
0.025282962 -0.12464698 0.66698378 9071439
0.035630401 -0.12521528 0.66519696 8939342
0.045333486 -0.12541716 0.66429508 8741963
0.055203862 -0.12507874 0.66347694 8412999
0.06501361 -0.12477411 0.66338325 8215113
0.074657165 -0.1252584 0.66573119 8281421
0.082315996 -0.12729646 0.66673684 8479057
0.018296359 -0.11647687 0.6678825 8216647
0.025598815 -0.11460682 0.6671229 7559492
0.035349291 -0.11538158 0.66629243 8084812
0.045119829 -0.11510088 0.66663927 8018762
0.054429661 -0.11526535 0.66705871 8018502
0.064110547 -0.11661693 0.66706532 8018248
0.071380578 -0.11820419 0.66800004 8018505
0.029900953 -0.10815238 0.66800004 6704693
0.035570521 -0.10815024 0.66747826 6769976
0.04345819 -0.10826471 0.66776198 7032635
0.05025905 -0.10878857 0.66800004 7296320
0.11700918 -0.081797585 0.66672724 10589099
0.1204681 -0.081689529 0.66750002 8812461
0.10780678 -0.076185398 0.66111118 8943239
0.11515456 -0.075038895 0.66315097 9141411
0.12173977 -0.075014293 0.66750008 8945839
0.11647341 -0.065424941 0.66255265 8616360
0.12248435 -0.063721001 0.66705006 8944806
0.19847357 -0.06046024 0.66475004 9141656
0.20623349 -0.062165085 0.66571438 9274263
0.21089715 -0.063142858 0.66300005 9933472
0.11761214 -0.057945214 0.66180015 8945066
0.1245515 -0.055244628 0.66444123 9536171
0.13386165 -0.052331213 0.66576475 9339570
0.14426859 -0.051711328 0.66666669 8684189
0.16833812 -0.050819054 0.66700006 7956871
0.17517114 -0.051472284 0.66722232 8551323
0.18645357 -0.050947856 0.66591668 8880274
0.1957576 -0.055747781 0.6638236 8552331
0.20445196 -0.058357235 0.66195655 8683411
0.086528167 -0.041229665 0.66314292 2105147
0.12869778 -0.049337782 0.66133338 9666719
0.13579935 -0.049400162 0.66216677 8485794
0.14513887 -0.04827195 0.66329169 8156309
0.15517095 -0.040065005 0.66775012 5392227
0.16584127 -0.046283722 0.66330004 7827847
0.17502882 -0.047744345 0.66231036 8419993
0.18332946 -0.047968052 0.66190922 9010065
0.076174937 -0.034205422 0.66389483 3814230
0.083563805 -0.03566587 0.66561365 3222343
0.10907239 -0.030893337 0.66200006 1050651
0.14733401 -0.034454744 0.66513789 4208986
0.15433206 -0.035378244 0.66372001 5590887
0.068077005 -0.02432235 0.66138476 4669791
0.074520916 -0.025813315 0.66544443 3945297
0.080735721 -0.029242381 0.66750002 3222085
0.098133974 -0.022237251 0.66288894 2696239
0.104317 -0.025213573 0.66183341 2761780
0.11166333 -0.028755715 0.66116667 1578282
0.055411749 -0.011963809 0.66116679 5787503
0.065290317 -0.015077785 0.66232502 4142158
0.072592728 -0.017529381 0.66684997 3221305
0.094626673 -0.017664 0.66240007 6773363
0.05557964 -0.008368481 0.66138107 4339547
0.062008098 -0.0091280956 0.66100001 2430257
-0.1737943 0.029811429 0.66600001 16307369
0.029264763 0.029900953 0.66800004 7434359
0.033683814 0.029871112 0.66733336 8288394
-0.19074571 0.032105718 0.66100001 15253904
-0.18696856 0.03231556 0.66100001 15318675
-0.17427851 0.033094991 0.66282874 15647903
-0.16573367 0.037193604 0.6645 14529165
-0.15983811 0.03932381 0.66600001 13739401
0.0089066671 0.038807619 0.66800004 8156829
0.016473453 0.037394349 0.66693741 8288143
0.024497299 0.034815047 0.66588372 7630983
0.03276014 0.031670883 0.66700011 7829642
-0.16240139 0.041632276 0.66122228 13213312
-0.15463005 0.044674564 0.66416323 12424312
-0.14918667 0.048032384 0.66800004 11700595
-0.0031174896 0.047747798 0.66609097 8945297
0.005288946 0.045154694 0.66457146 8354191
0.013606542 0.042760447 0.66360003 8288399
0.020774284 0.040919047 0.66100001 7959427
-0.15093505 0.053208765 0.66200006 11174000
-0.14718084 0.055300608 0.6650666 10845806
-0.013638845 0.056792032 0.66642427 9011347
-0.0057350588 0.054726809 0.66346538 8616334
0.0011331429 0.051998671 0.66100001 8354699
-0.14393622 0.064442761 0.66526407 9793893
-0.022633696 0.06692268 0.66623819 8287876
-0.015775912 0.064348906 0.66246539 8484487
-0.0085021434 0.061401669 0.66125 8288147
-0.1421373 0.075048067 0.66221887 9070172
-0.13917577 0.07474269 0.66563642 8938587
-0.032291591 0.077603817 0.667 7761277
-0.025468461 0.074762672 0.66401744 8287371
-0.018885715 0.072395243 0.66100001 8354436
-0.14283252 0.08531218 0.66395551 8215378
-0.033189841 0.082804628 0.66228575 8288138
-0.028367717 0.08144372 0.66190004 8681360
-0.15045619 0.098835237 0.66100001 7033414
-0.14624949 0.09470021 0.66511112 7164230
-0.16047429 0.10973143 0.66600001 5453362
-0.15365987 0.10559267 0.66364712 5849400
-0.14927061 0.10259525 0.66633332 5849402
-0.16190478 0.11110985 0.66666669 5585722
-0.15749507 0.11217417 0.66593337 4336937
-0.071145713 0.1454557 0.66536373 5722206
-0.068345472 0.14467898 0.6624167 5986144
0.038133971 -0.29064128 0.67866671 10518613
0.042552382 -0.29078764 0.67700005 10387803
0.16102 -0.29035333 0.67900002 1511956
0.037060279 -0.28428766 0.67764306 10584152
0.044885542 -0.28476602 0.67323643 10387543
0.1478485 -0.28451803 0.67058337 1052174
0.15527835 -0.28477466 0.67550981 1117965
0.16209142 -0.28353548 0.67870587 1380368
0.028626669 -0.27184576 0.67800009 10320978
0.034551729 -0.27549985 0.67551297 10320977
0.044178501 -0.27695221 0.67092866 10320978
0.1462165 -0.27370322 0.67078125 986123
0.15491796 -0.27510867 0.67492318 920587
0.16120753 -0.27587423 0.67869997 920843
0.026565654 -0.26368257 0.67506659 10649944
0.032833334 -0.2678887 0.67112505 10254162
0.13974287 -0.26800001 0.67000002 1249039
0.14493363 -0.26823142 0.67010003 1183243
0.155261 -0.26499555 0.6735 1117452
0.16307791 -0.26518455 0.67805886 1052173
0.018753333 -0.25478667 0.67900002 9596751
0.024219053 -0.25481334 0.67366678 9005899
0.14846656 -0.25458491 0.67033333 1314577
0.15476708 -0.25467601 0.67417234 1249039
0.16195247 -0.25560844 0.67800009 1183502
0.0180625 -0.2417599 0.67737502 7493703
0.024768984 -0.24495617 0.67301738 5389879
0.032357112 -0.243775 0.67158592 2759708
0.13564186 -0.24157445 0.67005563 2169623
0.14652272 -0.24335957 0.67141372 1511955
0.15523358 -0.24561426 0.67717326 1577745
0.16156477 -0.24666589 0.67881817 1380880
0.0095857149 -0.23069619 0.671 10121308
0.017571772 -0.23413897 0.67323995 6047289
0.025375891 -0.23521601 0.67424142 5389102
0.032893062 -0.23488873 0.6731779 4731685
0.12931049 -0.23786713 0.67050004 3882584
0.1353763 -0.23721127 0.67136341 1774876
0.14537773 -0.23729721 0.67446882 1576975
0.1557699 -0.23354268 0.67790914 6702895
0.16248949 -0.23297407 0.67686665 8477506
0.0091480957 -0.2272186 0.67016673 11043422
0.015142321 -0.22730169 0.671 6967357
0.025283562 -0.22551 0.67513996 4534822
0.034151886 -0.22549054 0.67534477 5388838
0.12908803 -0.22430778 0.67099994 2431771
0.13529131 -0.22484198 0.67429179 2365722
0.14506575 -0.224134 0.67773229 6308660
0.15437382 -0.22593169 0.67653191 7491129
0.16535103 -0.22510856 0.67557579 7094317
0.17256843 -0.223744 0.67359263 9464663
0.026938237 -0.21443813 0.67166674 7623483
0.034520742 -0.21480067 0.67332727 7821627
0.040220004 -0.21131396 0.67033339 8940619
0.12884253 -0.21338652 0.67083335 3876127
0.13251291 -0.21614054 0.67144442 4270629
0.14744 -0.21922 0.67900002 8083529
0.16904072 -0.21816929 0.67875004 6237974
0.17433907 -0.2146149 0.67498475 7491132
0.025801236 -0.20809101 0.67035294 9003338
0.034875955 -0.20733725 0.67103571 9662543
0.04147619 -0.20865716 0.67000002 9730384
0.12753338 -0.20463438 0.6731379 7822419
0.13167973 -0.2071224 0.67710006 9729123
0.17757346 -0.20891893 0.67862499 4009242
0.12565076 -0.19481285 0.67247725 10190450
0.13108 -0.19565578 0.67800003 10978161
0.12517367 -0.18486574 0.67232019 10190196
0.13079001 -0.18813193 0.67650002 10517875
-0.001072381 -0.17086986 0.67533338 8808518
0.0032930612 -0.17208301 0.67314297 6704955
0.11875992 -0.17317899 0.67009097 9861235
0.12497804 -0.17501356 0.6731528 10189680
-0.0015061378 -0.16519061 0.67755556 8216384
0.0036533126 -0.16434106 0.67295551 7490612
0.1181879 -0.1648213 0.67079163 9992814
0.12360685 -0.16558118 0.67450005 10124144
0.14485334 -0.16554667 0.67900002 11569274
-0.0010755556 -0.15661779 0.67666674 6901550
0.0047447179 -0.1555894 0.67241853 8144698
0.11581127 -0.15409178 0.67163408 9663080
0.12174722 -0.15666179 0.67636853 9860714
-0.0019793145 -0.14417244 0.67475998 8414022
0.0034983987 -0.14414743 0.67272341 6240299
0.10625456 -0.14293857 0.67090321 9334367
0.11423182 -0.14538397 0.67442006 9728866
0.12074857 -0.1485143 0.67800003 10057574
0.0069145034 -0.13528383 0.67454559 7820344
0.014331331 -0.13380891 0.67076921 8346174
0.021057144 -0.13080953 0.67000002 9465158
0.096294925 -0.13469109 0.67099994 8873558
0.10453162 -0.13568293 0.67459327 9070938
0.11132728 -0.13726391 0.67781818 9400415
0.005684196 -0.12450512 0.67575008 9335115
0.014864499 -0.12605645 0.67066658 9663568
0.077464767 -0.12085523 0.67000002 8215371
0.08620736 -0.12402607 0.67137784 8413266
0.094653144 -0.12532863 0.67455757 8610387
0.10218411 -0.12771584 0.67807692 8873817
0.0058767591 -0.1154094 0.67525023 7559483
0.014229362 -0.11426254 0.6707446 7887679
0.021057144 -0.11039048 0.67000002 6770993
0.058385715 -0.11070953 0.67000002 7951943
0.066155076 -0.11202919 0.67058337 7821381
0.075214989 -0.11487849 0.67227459 8018506
0.084530465 -0.11562274 0.67610174 8150092
0.093452759 -0.1171013 0.67834783 8413521
0.0080524413 -0.10792375 0.67656249 5916205
0.015618236 -0.10540281 0.67386907 5718060
0.025177879 -0.10480729 0.67332774 5652010
0.034283854 -0.10321269 0.6731739 5980458
0.045183968 -0.10354825 0.67246938 6375732
0.055001397 -0.10474519 0.67319691 6967354
0.064863019 -0.10580593 0.6733638 7230013
0.075061046 -0.10697007 0.67614627 7557950
0.081224769 -0.10880192 0.67866677 7821380
0.017980715 -0.099532142 0.67425001 5191727
0.021245716 -0.099790484 0.67600006 5257521
0.036122154 -0.098648973 0.67794722 5520423
0.043412801 -0.098765172 0.6778124 5586474
0.12674667 -0.09182667 0.67900002 8613768
0.11932381 -0.084866665 0.67000002 11707554
0.12594555 -0.08496581 0.67533356 9274794
0.13213009 -0.083240882 0.67841667 8814246
0.12680732 -0.075324647 0.67349982 8879019
0.13248049 -0.074257456 0.67800009 8813478
0.20564002 -0.070486665 0.67900002 10588328
0.126775 -0.065711685 0.67160004 8681891
0.13399124 -0.064492062 0.67714697 9011117
0.1412783 -0.060621914 0.67860001 9800621
0.17725652 -0.060952596 0.67844445 8419470
0.18209706 -0.061000675 0.6785 8420240
0.19687571 -0.0625102 0.67829412 9207706
0.20471042 -0.065904342 0.67445713 9536156
0.21072809 -0.066411912 0.67050004 10654393
0.12908787 -0.057514995 0.671 7824783
0.13546145 -0.056938775 0.67323339 9339310
0.14431341 -0.055832002 0.67426664 8550814
0.15530761 -0.053321928 0.67541671 5919591
0.16498391 -0.053899739 0.67663413 7234948
0.17519428 -0.05552759 0.67348772 8419475
0.18500717 -0.055254798 0.6732558 8485010
0.19312066 -0.057687473 0.67415786 8091274
0.093217842 -0.042546153 0.67500001 1840687
0.14793606 -0.042393096 0.67062497 6511223
0.15506497 -0.045241363 0.67201984 5787499
0.16215226 -0.046477292 0.67212003 7038844
0.088301912 -0.033236265 0.67223084 2169912
0.094893597 -0.035278939 0.67703998 2235180
0.10471699 -0.032207973 0.67816681 1643295
0.11041714 -0.030994287 0.67800003 986645
0.14676191 -0.038923811 0.67000002 4801132
0.078587979 -0.023638692 0.67087501 3222588
0.084985197 -0.024939543 0.67463166 3024693
0.094857484 -0.025384199 0.67576498 2564140
0.10404328 -0.028150344 0.67614287 1972261
0.11009143 -0.02897143 0.67600006 2499634
0.069193333 -0.01164 0.67900002 2496817
0.076095812 -0.013556603 0.67547822 3156539
0.084615216 -0.015552676 0.67354548 3616830
0.091981485 -0.017757885 0.67122227 4536398
0.057794668 -0.0011638096 0.67880005 2829128
0.066178843 -0.0036116911 0.67632502 3288127
0.074206717 -0.0060566054 0.67366672 4406350
0.081664011 -0.008576001 0.67199999 5786211
0.016592272 0.0065357676 0.67877775 5722222
0.023909787 0.0047004339 0.67854559 4405333
0.037683029 0.0085242437 0.67899996 4076882
0.04593198 0.0085213613 0.67838103 4472664
0.055750716 0.005446054 0.67659318 3880270
0.064479157 0.0031357005 0.67379987 4537941
0.070934288 0.00063904759 0.671 8353697
0.016813334 0.010993334 0.67900002 5985655
0.028654605 0.018313017 0.67866677 4343403
0.035157479 0.015951063 0.67685974 6774133
0.044649784 0.015123324 0.67481351 6248816
0.053618107 0.012038264 0.67358828 4867669
0.060051434 0.010977143 0.67800003 7692414
-0.16699526 0.029014288 0.67700005 16046266
0.017571095 0.027441684 0.67752951 8353938
0.025234392 0.025180742 0.67554718 8156300
0.034225658 0.02493304 0.67201865 7892614
0.042592019 0.022455478 0.67124987 7893384
-0.1719773 0.030905716 0.67414296 16109479
-0.16420543 0.03317643 0.67324996 15714212
-0.15562873 0.036388189 0.67527276 14726547
-0.14888358 0.038992617 0.67675006 13280129
-0.0012928572 0.039417617 0.67850006 8222090
0.0061084446 0.036602728 0.6735335 8485777
0.014658837 0.032730054 0.67250001 8419732
0.02275007 0.030608302 0.67157149 8026252
-0.15271011 0.041338541 0.67053342 12950397
-0.14550468 0.04546367 0.6723963 11897974
-0.13918953 0.049264446 0.67766666 10845550
-0.01272154 0.048146892 0.67546159 8747918
-0.0055306302 0.044216033 0.67348653 8682638
0.0024288571 0.04120867 0.67189997 8749205
-0.14257297 0.053937677 0.67074996 10648685
-0.13810037 0.055394612 0.67446876 10056808
-0.022559445 0.058326431 0.67675006 8616075
-0.016254969 0.053418573 0.67292869 8550803
-0.0095714284 0.050409522 0.67000002 9667485
-0.14101905 0.066149205 0.67000002 9661797
-0.13811103 0.065367594 0.6724999 9464929
-0.03292153 0.065764032 0.67702639 8155262
-0.026265888 0.063911013 0.67338473 8221059
-0.13743417 0.074902683 0.67564869 8872794
-0.034479998 0.07384596 0.67499995 6774633
-0.029352382 0.071466669 0.67000002 7630203
-0.14016001 0.085760012 0.67200005 7952464
-0.13867806 0.084523097 0.67648393 8149585
-0.042071361 0.08796484 0.67800009 8089468
-0.03815604 0.085108928 0.67784208 7826811
-0.1426273 0.095713764 0.67221427 6704194
-0.13935131 0.092954166 0.67662507 7098181
-0.052302953 0.09833169 0.67645454 7761021
-0.045651302 0.094621085 0.67514896 8088958
-0.038843177 0.091206364 0.67600006 8483199
-0.15084761 0.10848191 0.67400002 5324597
-0.14734349 0.10359873 0.67333335 5651510
-0.060380954 0.10511658 0.67880005 6972275
-0.054220155 0.10355483 0.67384207 7628920
-0.047659498 0.10295393 0.67099983 8352647
-0.15520203 0.11336846 0.67062503 3153177
-0.071351431 0.13850571 0.67800003 1969703
-0.068370722 0.13835071 0.67725003 2038559
-0.074374408 0.14404078 0.67548496 4865877
-0.068768732 0.14160556 0.67483342 3223090
0.029485716 -0.29092571 0.68800002 10058829
0.0335242 -0.2923606 0.6840589 10452820
0.16453159 -0.29134241 0.68283337 1380880
0.028305104 -0.28400037 0.68664289 10189649
0.032772459 -0.28577852 0.68228012 10518358
0.16676661 -0.2854678 0.68386966 1380368
0.17216708 -0.28446314 0.68763161 1511953
0.024712404 -0.27497193 0.6852439 10123856
0.030438095 -0.27912381 0.68000001 10321496
0.16596988 -0.27481008 0.68116677 1117709
0.17101604 -0.27554429 0.6845001 1380370
0.016710782 -0.26383907 0.68695462 10254924
0.02269881 -0.26745895 0.68349999 10321236
0.16822258 -0.26445588 0.68150008 1249040
0.17143704 -0.26529589 0.68444449 1380368
0.015280002 -0.25434744 0.68466663 9531467
0.020135241 -0.25006667 0.68200004 8478818
0.16656747 -0.25444055 0.6820358 1380625
0.17173044 -0.25486788 0.68604171 1446162
0.015086841 -0.24744295 0.68372726 7494222
0.020135241 -0.2481181 0.68200004 6835006
0.15701818 -0.2408554 0.67999995 1774100
0.16595449 -0.24411933 0.68292689 1445907
0.17346863 -0.24372208 0.68781245 1446419
0.14734213 -0.23489963 0.68061537 2301213
0.15413894 -0.23656911 0.68135136 1904395
0.16593613 -0.2375434 0.68360007 4138779
0.17386477 -0.23634863 0.68659276 4140328
0.15620378 -0.22209287 0.68178272 5976345
0.1629418 -0.22141503 0.68133348 7952192
0.13731664 -0.21487617 0.68175757 7492675
0.14477549 -0.21497788 0.68359679 7162677
0.1549547 -0.21489044 0.68490136 7029546
0.16481876 -0.2148993 0.68178147 8148802
0.17109361 -0.21240845 0.68085724 6829079
0.13564041 -0.20460546 0.68213516 9530455
0.14277245 -0.20538954 0.68674201 7556407
0.15772012 -0.20672888 0.68613642 6765087
0.16475652 -0.20526843 0.68285483 8279353
0.17292203 -0.20566797 0.68123537 9397584
0.1357576 -0.19538468 0.6816923 9528907
0.14280012 -0.19692075 0.68744457 7884858
0.15590443 -0.19209635 0.68795234 9595468
0.16449508 -0.19542259 0.68464285 9265733
0.17142414 -0.19807969 0.68266672 10318953
0.13560174 -0.18473203 0.68432516 8739910
0.14533529 -0.18439347 0.68568009 9594441
0.15511787 -0.18471156 0.68549091 9857104
0.16333808 -0.18586604 0.68345463 9792850
0.13540098 -0.17473473 0.6831153 8738874
0.14477354 -0.17515521 0.68309623 9790791
0.15419362 -0.17594695 0.68299997 8675146
0.16094382 -0.17848858 0.68233341 2757898
-0.0032476194 -0.16173142 0.68200004 7888188
0.12825018 -0.16369221 0.68080008 10518387
0.13473977 -0.16595739 0.68359184 10384998
0.14333969 -0.16745389 0.68161917 10778718
0.12644801 -0.15431139 0.68202376 10255212
0.13205887 -0.15542589 0.68643755 10780788
0.1183425 -0.1428194 0.68087494 9662557
0.12481439 -0.14508024 0.68584001 10188903
0.13027869 -0.1472981 0.68740004 10714992
-0.0021554888 -0.13705656 0.68273693 9730402
0.0018274459 -0.13461965 0.68136376 8479560
0.1086908 -0.13116255 0.68066669 9334365
0.11617996 -0.13454445 0.68530774 9794657
0.12234597 -0.13782442 0.68763649 10189161
-0.0019620636 -0.12149096 0.68583339 9533283
0.0016838097 -0.1283581 0.68000001 9467474
0.098751113 -0.12079048 0.68066669 8611155
0.1056044 -0.12434313 0.68268746 9137242
0.11492398 -0.1258074 0.68720454 9859938
-0.0014652975 -0.11555327 0.68356246 8284491
0.0014483517 -0.11283781 0.6818462 6968378
0.086762451 -0.11120598 0.68057144 8018761
0.096109338 -0.11370036 0.68222857 8413519
0.10499407 -0.11516313 0.68658191 8939347
0.11106285 -0.11892572 0.68800002 9399641
-0.00065460324 -0.10800889 0.68733335 6048052
0.0048076184 -0.10658096 0.68533331 5652532
0.011031112 -0.10317206 0.68133342 4995120
0.024609523 -0.10038095 0.68000001 5257253
0.049866665 -0.10038095 0.68000001 5915692
0.055695236 -0.10038095 0.68000001 6047278
0.065827802 -0.10132995 0.68093753 6244146
0.075475805 -0.10190547 0.68360013 6441010
0.084995724 -0.10523636 0.68381125 7295547
0.094132408 -0.10701095 0.68560529 7953224
0.10025143 -0.10876952 0.68800002 8413007
0.01886381 -0.099522859 0.68300003 5388594
0.025891589 -0.09653347 0.68535721 5652271
0.035100792 -0.094287522 0.68442559 4731430
0.045141563 -0.094560169 0.68369067 4862754
0.054386634 -0.096130155 0.68312758 5060131
0.064417221 -0.098045282 0.6842308 5454885
0.073622726 -0.098616123 0.6878463 5848616
0.080594286 -0.098940954 0.68800002 6243632
0.12906572 -0.092100002 0.68100005 10456493
0.13521051 -0.093762055 0.68548727 9206943
0.14140858 -0.092744082 0.68785727 10062501
0.13626677 -0.085600875 0.68357587 9207977
0.14140345 -0.085104287 0.68737501 8945323
0.13737354 -0.075215392 0.68192589 8945323
0.14381361 -0.073699735 0.68614304 8944551
0.17574021 -0.072166875 0.6870715 8352905
0.18324366 -0.071552858 0.68716669 9076121
0.19944739 -0.071067855 0.68774998 8288141
0.20263074 -0.072139189 0.68414289 10260904
0.1383332 -0.06672471 0.68106675 8616359
0.14523423 -0.064952992 0.68381828 8747940
0.1544043 -0.062809572 0.68696171 8287390
0.16603613 -0.06260667 0.68387508 7235461
0.17464884 -0.065568477 0.68285203 7893642
0.18515278 -0.065594845 0.68214893 8615827
0.19421506 -0.065544717 0.68347365 8880023
0.20192023 -0.068801053 0.68222219 8684172
0.14895238 -0.058285713 0.68000001 8287383
0.15485792 -0.058222301 0.68235302 6906756
0.16520922 -0.058668129 0.68153852 6643068
0.17129523 -0.058609523 0.68000001 7827849
0.094336502 -0.031085715 0.68000001 2826540
0.10130612 -0.03561905 0.68000001 1511965
0.068000004 -0.011009524 0.68000001 2299952
0.075869888 -0.014753215 0.680875 2432556
0.081190482 -0.01688762 0.68200004 2630709
0.048714288 -0.00064952386 0.68200004 725557
0.055637758 -0.0025381821 0.68145466 2168886
0.063343175 -0.0062128049 0.68255568 2563630
0.011657143 0.0090666674 0.68000001 7102331
0.023454936 0.0073427567 0.68105274 4077398
0.045761902 0.0042123822 0.68085736 3221319
0.051092621 0.0017840477 0.68125004 2432318
0.0082296841 0.015809366 0.68216681 6313581
0.014889178 0.015139228 0.68334049 4866660
0.024033127 0.015238302 0.68539149 4472939
0.033676192 0.011657143 0.68000001 3946056
-0.19155145 0.028079048 0.68566674 12953194
-0.18461289 0.027833335 0.68254554 15846815
-0.1749181 0.026807403 0.68417507 16243128
-0.16571003 0.028107146 0.68637508 16111804
-0.15845191 0.029464286 0.6875 16175276
-0.001177143 0.028339049 0.68559998 7498364
0.0057383683 0.025159929 0.68299991 6577274
0.014215693 0.023753654 0.68295246 7038079
0.022344666 0.020917049 0.68210006 5525350
-0.19130287 0.031051431 0.68400002 15516571
-0.18648368 0.031455535 0.68261552 15976859
-0.17991811 0.03052762 0.68200004 16240554
-0.16285715 0.030617146 0.68400002 16043957
-0.15410896 0.032730483 0.68326092 15451044
-0.14563008 0.036871947 0.68573183 13805961
-0.13891047 0.039969526 0.68800002 12687745
-0.015302771 0.039477143 0.68772745 7628925
-0.0039151469 0.035648212 0.68414301 7629958
0.0040166071 0.032908089 0.68175006 8156815
0.011041906 0.03052762 0.68200004 8156815
-0.14257677 0.043221079 0.68360871 12095353
-0.13626786 0.045797523 0.68510014 11306099
-0.031233018 0.048706036 0.68800008 8022919
-0.02382084 0.046666097 0.68721217 7892101
-0.015525645 0.044465382 0.68543905 7563388
-0.0076697618 0.041574527 0.68474996 8222866
-0.13377683 0.054993913 0.68480861 10188135
-0.050453335 0.059626669 0.68800002 7892873
-0.044313811 0.058355603 0.68761104 8616332
-0.034759093 0.055730112 0.68661547 8485006
-0.02535744 0.054008499 0.68394339 8353674
-0.01843016 0.050519686 0.68300009 7761279
-0.13342746 0.064885035 0.68421167 9202272
-0.12908192 0.066179052 0.68800002 8873820
-0.052344818 0.065704696 0.6873104 8550021
-0.045012578 0.065224133 0.68491089 8681357
-0.037393168 0.063599631 0.68196428 8747148
-0.13275006 0.074855596 0.68282855 8609880
-0.12908192 0.070110478 0.68800002 8676186
-0.060937144 0.07862857 0.68800002 8548474
-0.054729663 0.075037427 0.68680722 7497332
-0.044686921 0.075110137 0.68220729 7168884
-0.03885714 0.075123817 0.68000001 6972019
-0.13437916 0.085255004 0.68268752 7820878
-0.054012787 0.084781624 0.68642324 7629688
-0.045587264 0.084198967 0.6821627 7957631
-0.039504763 0.081600003 0.68000001 7828092
-0.14005713 0.096411429 0.68400002 6573117
-0.13710578 0.092550173 0.68431252 7098436
-0.062311482 0.09660586 0.68725002 7956599
-0.055537716 0.094311118 0.68371999 8220541
-0.048053332 0.090796195 0.68000001 8351877
-0.14637341 0.10572667 0.68452948 5388337
-0.071574114 0.10631835 0.68718195 7299438
-0.065436728 0.10478137 0.68356603 7299951
-0.058436431 0.10128786 0.68175006 7957365
-0.14917715 0.11057429 0.68700004 4470315
-0.072626986 0.11188286 0.68700004 6576223
-0.068626672 0.11090571 0.68300009 8222082
-0.080832958 0.13795258 0.68779999 2497324
-0.075510599 0.13721274 0.68500006 2234146
-0.083104029 0.14533295 0.68471873 4735571
-0.078230225 0.14316483 0.68186677 4535631
-0.083261907 0.15026 0.68300003 8551565
0.019278098 -0.29183048 0.69800007 16643573
0.025109934 -0.29433686 0.69495243 11968637
0.030885719 -0.29637146 0.69000006 10387005
0.16937523 -0.29393858 0.69200003 1380876
0.17404151 -0.2941848 0.6927827 2366484
0.018347034 -0.28492403 0.69761544 12821635
0.023684697 -0.28540701 0.69220012 10320973
0.17684337 -0.28477401 0.69077432 1511697
0.1819997 -0.28192908 0.69490016 1380623
0.017161783 -0.2746813 0.69439143 12295551
0.020634286 -0.27770859 0.69000006 9992792
0.17698073 -0.27552083 0.69434315 1446160
0.18160671 -0.27610967 0.69730777 1578003
0.0088840136 -0.26373518 0.69478583 14534333
0.012958516 -0.26592276 0.69188893 13218185
0.17722216 -0.26485991 0.69403708 1380372
0.18197365 -0.26516676 0.6975385 1446162
0.0079152379 -0.25473541 0.69292867 8151868
0.011504048 -0.25867978 0.69025004 9860162
0.17727728 -0.254787 0.69325012 1577237
0.18048286 -0.25693047 0.69800001 1577236
0.0079484256 -0.24737394 0.69123077 7101258
0.011171429 -0.24642859 0.69000006 7896180
0.176452 -0.24763525 0.69080007 1511957
0.18096003 -0.24857144 0.69600004 1511953
0.14917144 -0.21094288 0.69000006 5189903
0.15114287 -0.21094288 0.69000006 5385257
0.14809456 -0.20480351 0.69404769 6503463
0.15432511 -0.20497473 0.69447446 6831919
0.13931429 -0.19254288 0.69000006 7490359
0.14576338 -0.19518752 0.69584233 6831663
0.15466633 -0.19722028 0.69352949 7423529
0.13931429 -0.1899143 0.69000006 6765104
0.14194286 -0.18860002 0.69000006 6961435
0.13786209 -0.16290721 0.69218755 11766912
0.14192614 -0.16342963 0.69600004 12227716
0.136824 -0.15472083 0.69355178 11372414
0.14192843 -0.15515761 0.69765216 12161671
0.12917548 -0.14133644 0.69025004 10452844
0.13509892 -0.14452223 0.6938141 11109496
0.14026478 -0.14824191 0.69800007 11701631
0.12590855 -0.13459428 0.69125026 10320742
0.13437784 -0.13481951 0.69528311 11109747
0.11656308 -0.12154008 0.69035727 9793887
0.12480736 -0.12480111 0.69185746 10451303
0.13424724 -0.12503739 0.69670206 11372661
0.10755239 -0.11149525 0.69000006 9004370
0.11555976 -0.11479053 0.69144028 9530456
0.1248031 -0.11489499 0.69333959 10517347
0.13350157 -0.11540018 0.69648713 11437685
0.0078133335 -0.10305088 0.69171435 5389878
0.013961524 -0.10127334 0.69139999 5323055
0.086641438 -0.10110858 0.69050002 6836021
0.095614754 -0.10230131 0.69124007 7492671
0.1053253 -0.10543296 0.69171232 8413004
0.11495652 -0.10506126 0.69226819 9135954
0.12517667 -0.10466181 0.69499993 10122590
0.13375543 -0.10448712 0.69763166 9991521
0.14409912 -0.10148897 0.69725001 10322072
0.0099142855 -0.099142849 0.69400001 6246457
0.016112618 -0.098191299 0.69335002 5719348
0.022300536 -0.09448126 0.69131255 5916987
0.033562858 -0.091475241 0.69100004 3353383
0.057501994 -0.092662521 0.69545454 5455135
0.0651737 -0.093490742 0.69461912 5783589
0.075218134 -0.094266139 0.69340831 6178350
0.085241981 -0.095123857 0.69549972 6835508
0.095220529 -0.095365196 0.69487309 7427131
0.10495587 -0.095055722 0.69371951 8084038
0.11504924 -0.09521044 0.69425011 8150089
0.12475286 -0.095410101 0.69648838 7492674
0.13438249 -0.098561987 0.69458336 7163485
0.14586979 -0.095224679 0.69391441 9471413
0.1514198 -0.093391858 0.69766665 9537968
0.06771075 -0.089362994 0.69800007 6573618
0.075118102 -0.089078106 0.69800007 6967350
0.08640109 -0.086688556 0.69800001 7427389
0.094969109 -0.085008338 0.69733959 7624514
0.1046337 -0.084900014 0.69585687 7229756
0.11463796 -0.08646366 0.69536591 6571574
0.12214096 -0.088728577 0.69700003 7954787
0.14635728 -0.085043944 0.69221437 8945574
0.1524024 -0.08495257 0.69708008 9339822
0.094723545 -0.075673006 0.69743913 6902328
0.10338672 -0.077934712 0.6964376 6441525
0.14767756 -0.076907314 0.69142103 9470377
0.15345198 -0.074750967 0.69458067 8747427
0.17898905 -0.075294763 0.69350004 8682633
0.18478006 -0.075126544 0.69359094 9669284
0.19567679 -0.073159553 0.69480568 9076634
0.20057382 -0.074969053 0.69050002 10459033
0.093399048 -0.069467619 0.69800001 6705974
0.15564804 -0.067629479 0.69294751 8090270
0.16248667 -0.065871432 0.69580001 6248558
0.19648573 -0.069000006 0.69000006 9801622
0.018613335 -0.0013295239 0.69800001 5657463
0.024866818 -0.0017141353 0.69773686 6710413
0.018825715 0.0011069842 0.69766665 6181741
0.023761241 0.0010620001 0.69690007 6906748
-0.17044668 0.024349526 0.69100004 16244934
-0.16504136 0.025480071 0.69266683 16047040
-0.15489092 0.027831491 0.69366682 16110514
-0.14860266 0.029082669 0.6972 15714729
-0.014450037 0.029149525 0.69684619 10259614
-0.0060836305 0.027093748 0.69506264 8814478
-0.15271255 0.031112228 0.69016671 15714473
-0.14378457 0.033204265 0.69400012 14332561
-0.13741097 0.037353899 0.6967001 12819586
-0.033669133 0.037644144 0.69635302 10260129
-0.024599154 0.035645392 0.69404256 9536665
-0.015110435 0.034594204 0.69244462 8221570
-0.0084230499 0.034082104 0.69090003 7431806
-0.13341051 0.044471834 0.69534618 11437684
-0.12804651 0.049402066 0.69783342 10319720
-0.060936511 0.049413972 0.69800007 9142668
-0.054550104 0.046580389 0.69694877 9010320
-0.044952571 0.044943172 0.69407862 8813200
-0.035113342 0.044551179 0.69164157 8484236
-0.026117416 0.042409342 0.69058084 8154759
-0.13043343 0.053358961 0.69169998 10122088
-0.12701426 0.055453129 0.69610816 9793892
-0.061790168 0.055465262 0.69690484 8221828
-0.05475574 0.05519262 0.69326442 8352905
-0.0452834 0.05358389 0.69097638 8155781
-0.036800001 0.051257141 0.69000006 7761799
-0.12675114 0.064364269 0.69415802 8939357
-0.063591711 0.06524846 0.69530243 8483461
-0.057245921 0.06437932 0.69088471 8615562
-0.13106669 0.078265861 0.69057149 8215636
-0.12668312 0.075031921 0.69300014 8084307
-0.071461909 0.078109525 0.69800001 7957363
-0.065420948 0.07506793 0.69460011 8088956
-0.05929162 0.071386099 0.69020003 8287621
-0.13149625 0.084815457 0.69035727 7623755
-0.12760626 0.084786102 0.69339395 7295561
-0.072889395 0.085399732 0.69772416 7233903
-0.065589227 0.084948599 0.69394255 7037812
-0.059106763 0.086000279 0.69027281 7432823
-0.14204618 0.099300481 0.69050002 6309946
-0.13445932 0.095289566 0.69351214 6375740
-0.12868896 0.091847055 0.69580001 6376511
-0.07379844 0.095395669 0.69621962 7300465
-0.066342466 0.093892433 0.69147384 7563383
-0.059800003 0.090028577 0.69000006 8091004
-0.14342088 0.10517956 0.69239295 5388848
-0.13692994 0.10209887 0.69668758 5520437
-0.080739766 0.10864929 0.69775003 6445411
-0.075367033 0.10452566 0.69364113 7037035
-0.069000006 0.10120001 0.69000006 7431533
-0.1468638 0.11152922 0.69566673 3944994
-0.081051573 0.11493361 0.69757146 6116183
-0.076538973 0.11497941 0.69323081 6181467
-0.080436192 0.12165143 0.69800007 4865605
-0.077286392 0.1219513 0.69700015 5522514
-0.09042 0.13860001 0.69300002 3220284
-0.084990904 0.13808744 0.69043756 2891570
-0.092635125 0.14558798 0.69496 4998236
-0.0872311 0.14318922 0.69125003 4671820
0.018000003 -0.29133338 0.70000005 16442862
0.022444448 -0.29711112 0.70000005 15330013
0.015378963 -0.28327543 0.70227277 13479838
0.014039895 -0.27794659 0.70211112 13480082
0.1859924 -0.27421367 0.70146698 1709590
0.19243762 -0.27116096 0.70650005 3223336
0.004666667 -0.26066667 0.70000005 14467521
0.18661296 -0.26446396 0.70248157 1643542
0.19214259 -0.26402727 0.70514816 3289130
0.004666667 -0.25933334 0.70000005 14203833
0.18598051 -0.25509614 0.70421958 1577490
0.19222438 -0.2554253 0.70720005 2761503
0.18580088 -0.24781801 0.70781255 1380883
0.19149715 -0.24881144 0.708 2300700
