# .PCD v0.7 - Point Cloud Data file format
VERSION 0.7
FIELDS x y z rgba
SIZE 4 4 4 4
TYPE F F F U
COUNT 1 1 1 1
WIDTH 1150
HEIGHT 1
VIEWPOINT 0 0 0 1 0 0 0
POINTS 1150
DATA ascii
-0.28310382 0.44306383 1.3330001 4285097566
-0.28056479 0.44306383 1.3330001 4284965980
-0.27802572 0.44306383 1.3330001 4285227103
-0.27548668 0.44306383 1.3330001 4285424482
-0.27192384 0.44140193 1.3280001 4285162589
-0.26939431 0.44140193 1.3280001 4285294175
-0.26686478 0.44140193 1.3280001 4285557095
-0.26533049 0.44306383 1.3330001 4285622888
-0.26279142 0.44306383 1.3330001 4285688681
-0.25927621 0.44140193 1.3280001 4285754474
-0.25674668 0.44140193 1.3280001 4286081647
-0.25421715 0.44140193 1.3280001 4286279026
-0.25168762 0.44140193 1.3280001 4286542961
-0.24803238 0.43940765 1.322 4286279789
-0.24551429 0.43940765 1.322 4286083945
-0.2429962 0.43940765 1.322 4286544496
-0.2404781 0.43940765 1.322 4286610814
-0.23796 0.43940765 1.322 4286216056
-0.23544191 0.43940765 1.322 4286216819
-0.23292382 0.43940765 1.322 4286019440
-0.23040572 0.43940765 1.322 4285756264
-0.22788762 0.43940765 1.322 4285756264
-0.22536953 0.43940765 1.322 4286149988
-0.22285143 0.43940765 1.322 4286281574
-0.22033334 0.43940765 1.322 4286477677
-0.21781525 0.43940765 1.322 4286411884
-0.21529715 0.43940765 1.322 4286149988
-0.21277905 0.43940765 1.322 4286084195
-0.21026096 0.43940765 1.322 4285952873
-0.20695715 0.43774572 1.317 4285821287
-0.20444858 0.43774572 1.317 4285821555
-0.20194 0.43774572 1.317 4285953141
-0.19943142 0.43774572 1.317 4286149498
-0.19692287 0.43774572 1.317 4286083705
-0.19367619 0.43608379 1.312 4286018166
-0.19117714 0.43608379 1.312 4285952373
-0.18867809 0.43608379 1.312 4286017912
-0.18617906 0.43608379 1.312 4286083705
-0.18368 0.43608379 1.312 4286150009
-0.18118095 0.43608379 1.312 4285952630
-0.17800096 0.4344219 1.307 4286018929
-0.17551143 0.4344219 1.307 4286018929
-0.17368382 0.43608379 1.312 4285689199
-0.17118476 0.43608379 1.312 4284307546
-0.16868572 0.43608379 1.312 4283979603
-0.16618666 0.43608379 1.312 4282268985
-0.16368763 0.43608379 1.312 4281480761
-0.16118857 0.43608379 1.312 4281546554
-0.15868953 0.43608379 1.312 4281873986
-0.15619047 0.43608379 1.312 4281808193
-0.15310572 0.4344219 1.307 4281874488
-0.1506162 0.4344219 1.307 4281808695
-0.14812668 0.4344219 1.307 4281742400
-0.14563715 0.4344219 1.307 4281742400
-0.14314763 0.4344219 1.307 4281873216
-0.1406581 0.4344219 1.307 4281873216
-0.13816857 0.4344219 1.307 4281939259
-0.13567904 0.4344219 1.307 4282005052
-0.13318951 0.4344219 1.307 4281874236
-0.13069999 0.4344219 1.307 4281874236
-0.12821047 0.4344219 1.307 4282005304
-0.12572095 0.4344219 1.307 4282005304
-0.12323143 0.4344219 1.307 4282070595
-0.12074191 0.4344219 1.307 4282267974
-0.11825238 0.4344219 1.307 4282201929
-0.11576286 0.4344219 1.307 4282004550
-0.11327334 0.4344219 1.307 4281873216
-0.11078382 0.4344219 1.307 4282004802
-0.10829429 0.4344219 1.307 4282069305
-0.10580476 0.4344219 1.307 4281806133
-0.10331524 0.4344219 1.307 4281544501
-0.10082572 0.4344219 1.307 4281412915
-0.097960003 0.43276 1.302 4281282099
-0.095480002 0.43276 1.302 4281150513
-0.093000002 0.43276 1.302 4281150513
-0.090520002 0.43276 1.302 4281018927
-0.088040002 0.43276 1.302 4280953134
-0.085560001 0.43276 1.302 4280821548
-0.083080001 0.43276 1.302 4281018677
-0.080290474 0.4310981 1.2970001 4281018677
-0.077820003 0.4310981 1.2970001 4281018677
-0.075349525 0.4310981 1.2970001 4280887091
-0.072879046 0.4310981 1.2970001 4280953134
-0.070408568 0.4310981 1.2970001 4280887341
-0.067938097 0.4310981 1.2970001 4281018157
-0.065467626 0.4310981 1.2970001 4280952364
-0.062997147 0.4310981 1.2970001 4281018157
-0.060526669 0.4310981 1.2970001 4281018157
-0.058056194 0.4310981 1.2970001 4280952616
-0.055585716 0.4310981 1.2970001 4280886823
-0.052910481 0.42943621 1.2920001 4280953386
-0.050449528 0.42943621 1.2920001 4281019179
-0.047988571 0.42943621 1.2920001 4281084720
-0.045527618 0.42943621 1.2920001 4281084720
-0.043066666 0.42943621 1.2920001 4281150263
-0.040480006 0.4281067 1.2880001 4281018677
-0.038026668 0.4281067 1.2880001 4281017646
-0.035683811 0.42943621 1.2920001 4281346611
-0.033222858 0.42943621 1.2920001 4281413417
-0.030880954 0.4310981 1.2970001 4281545003
-0.028410478 0.4310981 1.2970001 4282005554
-0.025940001 0.4310981 1.2970001 4282137140
-0.023469524 0.4310981 1.2970001 4282663234
-0.02099905 0.4310981 1.2970001 4282729027
-0.018457144 0.42943621 1.2920001 4282598211
-0.015996192 0.42943621 1.2920001 4282532418
-0.013493334 0.4281067 1.2880001 4282597959
-0.011040001 0.4281067 1.2880001 4282597959
-0.0085866675 0.4281067 1.2880001 4282663234
-0.0061333338 0.4281067 1.2880001 4282663234
-0.0036914286 0.42943621 1.2920001 4283253824
-0.0012304762 0.42943621 1.2920001 4283648582
0.0012304762 0.42943621 1.2920001 4283386180
0.0036914286 0.42943621 1.2920001 4283451973
0.0061523807 0.42943621 1.2920001 4283255628
0.008613334 0.42943621 1.2920001 4283387214
0.011074286 0.42943621 1.2920001 4283387216
0.013493334 0.4281067 1.2880001 4283321423
0.015946668 0.4281067 1.2880001 4283387214
0.0184 0.4281067 1.2880001 4283518800
0.020853335 0.4281067 1.2880001 4283453259
0.023306668 0.4281067 1.2880001 4283519052
0.025760002 0.4281067 1.2880001 4283453520
0.028213335 0.4281067 1.2880001 4283453520
0.03066667 0.4281067 1.2880001 4283518802
0.033119999 0.4281067 1.2880001 4283650388
0.035435241 0.4264448 1.2830001 4283584595
0.03787905 0.4264448 1.2830001 4283584595
0.040480006 0.4281067 1.2880001 4283453522
0.042933334 0.4281067 1.2880001 4283387729
0.045386672 0.4281067 1.2880001 4283585106
0.047840003 0.4281067 1.2880001 4283650899
0.050293338 0.4281067 1.2880001 4283846995
0.052746668 0.4281067 1.2880001 4283912788
0.054985717 0.4264448 1.2830001 4283846995
0.05742953 0.4264448 1.2830001 4283846995
0.059873335 0.4264448 1.2830001 4283650638
0.062317148 0.4264448 1.2830001 4283519052
0.06450858 0.42478287 1.2780001 4283453536
0.066942863 0.42478287 1.2780001 4283782501
0.069377147 0.42478287 1.2780001 4284178015
0.071811438 0.42478287 1.2780001 4286349184
0.074245721 0.42478287 1.2780001 4287465860
0.076680005 0.42478287 1.2780001 4288715927
0.078804761 0.42312095 1.273 4288519822
0.081229523 0.42312095 1.273 4288454029
0.083982863 0.42478287 1.2780001 4288453518
0.086417146 0.42478287 1.2780001 4288387725
0.088851437 0.42478287 1.2780001 4287861644
0.09128572 0.42478287 1.2780001 4287664265
0.093720004 0.42478287 1.2780001 4287598218
0.096154287 0.42478287 1.2780001 4288387734
0.098588586 0.42478287 1.2780001 4288519068
0.10102287 0.42478287 1.2780001 4289637549
0.10345715 0.42478287 1.2780001 4289703094
0.10547714 0.42312095 1.273 4289637301
0.1079019 0.42312095 1.273 4289769909
0.11032667 0.42312095 1.273 4289638323
0.11230858 0.42145905 1.268 4289112245
0.11472381 0.42145905 1.268 4289375417
0.11713905 0.42145905 1.268 4289178038
0.11955428 0.42145905 1.268 4289243831
0.12196951 0.42145905 1.268 4289242804
0.12438476 0.42145905 1.268 4288716460
0.1268 0.42145905 1.268 4288453275
0.12972476 0.42312095 1.273 4288519068
0.13214953 0.42312095 1.273 4288585122
0.13404572 0.42145905 1.268 4288585122
0.13646095 0.42145905 1.268 4288715936
0.1388762 0.42145905 1.268 4288847522
0.14129142 0.42145905 1.268 4288913567
0.14370666 0.42145905 1.268 4288847774
0.1461219 0.42145905 1.268 4289109667
0.14853714 0.42145905 1.268 4289636011
0.15154761 0.42312095 1.273 4289374377
0.15397239 0.42312095 1.273 4289308584
0.15639713 0.42312095 1.273 4289309097
0.15882191 0.42312095 1.273 4288848546
0.16124667 0.42312095 1.273 4288782242
0.16367142 0.42312095 1.273 4288650656
0.1660962 0.42312095 1.273 4288519581
0.16852096 0.42312095 1.273 4288519581
0.1709457 0.42312095 1.273 4288519581
0.17337048 0.42312095 1.273 4288651167
0.17579524 0.42312095 1.273 4288717732
0.17821999 0.42312095 1.273 4288717732
0.18064477 0.42312095 1.273 4288848546
0.18306953 0.42312095 1.273 4288782753
0.18549427 0.42312095 1.273 4288650656
0.18791905 0.42312095 1.273 4289177000
0.19034381 0.42312095 1.273 4288914861
0.19201143 0.42145905 1.268 4289638584
0.19442666 0.42145905 1.268 4289835459
0.19684191 0.42145905 1.268 4289309115
0.19862857 0.42012954 1.2640001 4289308597
0.2010362 0.42012954 1.2640001 4289045425
0.20263906 0.41846764 1.2590001 4288782251
0.20503716 0.41846764 1.2590001 4288519079
0.20743524 0.41846764 1.2590001 4288519054
0.20983334 0.41846764 1.2590001 4284900439
0.21223144 0.41846764 1.2590001 4282003764
0.21462953 0.41846764 1.2590001 4278583296
0.26598382 0.51286381 1.5430001 4278519040
0.26892287 0.51286381 1.5430001 4283979857
0.27309522 0.51519048 1.5500001 4285162857
0.27729428 0.51751715 1.557 4286544510
0.28026 0.51751715 1.557 4286611066
0.28322572 0.51751715 1.557 4286808445
0.28619143 0.51751715 1.557 4287332990
0.28915715 0.51751715 1.557 4287530369
0.29212287 0.51751715 1.557 4287464074
0.29508859 0.51751715 1.557 4287858832
0.29939431 0.51984388 1.5640001 4287663750
0.30237335 0.51984388 1.5640001 4287663750
0.30535239 0.51984388 1.5640001 4287531662
0.30833143 0.51984388 1.5640001 4287400076
0.31290287 0.52250284 1.572 4287399817
0.31589717 0.52250284 1.572 4287005059
0.31726858 0.51984388 1.5640001 4287003782
0.32024765 0.51984388 1.5640001 4287135368
0.32322669 0.51984388 1.5640001 4287005059
0.32620573 0.51984388 1.5640001 4287070852
0.3291848 0.51984388 1.5640001 4286742416
0.33216384 0.51984388 1.5640001 4283715938
0.33514288 0.51984388 1.5640001 4283255873
0.33812192 0.51984388 1.5640001 4282203185
0.34110099 0.51984388 1.5640001 4280627751
0.34408003 0.51984388 1.5640001 4281022509
0.34705907 0.51984388 1.5640001 4282731034
0.35003814 0.51984388 1.5640001 4286283856
0.35482284 0.52250284 1.572 4286873734
0.35781714 0.52250284 1.572 4286742148
0.35897526 0.51984388 1.5640001 4286676866
0.3619543 0.51984388 1.5640001 4286413694
0.3633 0.51751715 1.557 4286479489
0.36297241 0.51286381 1.5430001 4284966250
0.36425141 0.51053715 1.536 4284898617
0.36550382 0.50821048 1.529 4285556547
0.36841619 0.50821048 1.529 4287922815
0.37132859 0.50821048 1.529 4289765019
0.37424096 0.50821048 1.529 4288318611
0.37887999 0.51053715 1.536 4284436824
0.38180572 0.51053715 1.536 4284702038
0.38473144 0.51053715 1.536 4285031003
0.38765714 0.51053715 1.536 4284701009
0.39058286 0.51053715 1.536 4284569423
0.39530191 0.51286381 1.5430001 4285225043
0.40004763 0.51519048 1.5500001 4287593591
0.40118 0.51286381 1.5430001 4287859343
0.40411907 0.51286381 1.5430001 4287925136
0.40705812 0.51286381 1.5430001 4288912029
0.40999717 0.51286381 1.5430001 4287925134
0.41106284 0.51053715 1.536 4288188308
0.41398859 0.51053715 1.536 4287990929
0.41691428 0.51053715 1.536 4288252827
0.41984001 0.51053715 1.536 4287397518
0.42469242 0.51286381 1.5430001 4286872696
0.42957145 0.51519048 1.5500001 4286083180
0.43252382 0.51519048 1.5500001 4285559416
0.42957622 0.50821048 1.529 4285362037
0.43248856 0.50821048 1.529 4284902011
0.44138095 0.51519048 1.5500001 4285230976
0.44433334 0.51519048 1.5500001 4284969348
0.44728574 0.51519048 1.5500001 4284640383
0.45023811 0.51519048 1.5500001 4283916156
0.45319051 0.51519048 1.5500001 4283389812
0.45202285 0.51053715 1.536 4283321954
0.45494857 0.51053715 1.536 4282664024
0.459961 0.51286381 1.5430001 4282206040
0.4587 0.50821048 1.529 4283916658
0.45980099 0.50621623 1.5230001 4286274892
0.46057522 0.5038895 1.516 4290683023
0.46346286 0.5038895 1.516 4289108134
0.46635047 0.5038895 1.516 4284173659
0.46707144 0.50156289 1.5090001 4286665984
0.46994573 0.50156289 1.5090001 4290547756
0.47282001 0.50156289 1.5090001 4292323766
0.4756943 0.50156289 1.5090001 4292060594
0.47856858 0.50156289 1.5090001 4291608002
0.47952858 0.49956855 1.503 4288055180
0.48239145 0.49956855 1.503 4287463050
0.48525429 0.49956855 1.503 4286344569
0.48811716 0.49956855 1.503 4286213450
0.49098 0.49956855 1.503 4286739794
0.52374291 0.52981526 1.5940001 4286673804
0.52677906 0.52981526 1.5940001 4286213253
0.52981526 0.52981526 1.5940001 4285557851
0.53285146 0.52981526 1.5940001 4287794813
0.53319812 0.52715623 1.5860001 4288583115
0.53621906 0.52715623 1.5860001 4287398841
0.54196006 0.52981526 1.5940001 4286213201
0.5449962 0.52981526 1.5940001 4287660647
0.5480324 0.52981526 1.5940001 4288246674
0.5510686 0.52981526 1.5940001 4287588744
0.55132383 0.52715623 1.5860001 4287854159
0.55434477 0.52715623 1.5860001 4289170019
0.55736572 0.52715623 1.5860001 4287724166
0.55261332 0.51984388 1.5640001 4285224032
0.55559242 0.51984388 1.5640001 4284832597
0.5560714 0.51751715 1.557 4288122247
0.55903715 0.51751715 1.557 4287796126
0.56994385 0.52482957 1.5790001 4282335307
0.5729515 0.52482957 1.5790001 4282333705
0.57595909 0.52482957 1.5790001 4287202387
0.57896668 0.52482957 1.5790001 4286671277
0.58197433 0.52482957 1.5790001 4283184248
0.58498192 0.52482957 1.5790001 4284495912
0.5905962 0.52715623 1.5860001 4288575078
0.59361714 0.52715623 1.5860001 4286482031
0.59663814 0.52715623 1.5860001 4283060795
0.60268384 0.52981526 1.5940001 4280169216
0.60838002 0.53214192 1.6010001 4280300800
0.61142957 0.53214192 1.6010001 4280427071
0.6175496 0.53480095 1.6090001 4278519074
0.61752862 0.53214192 1.6010001 4278190848
0.62057817 0.53214192 1.6010001 4278454276
0.6236276 0.53214192 1.6010001 4278978100
0.62393719 0.52981526 1.5940001 4278386731
0.62697333 0.52981526 1.5940001 4278255872
0.63000959 0.52981526 1.5940001 4278716422
0.63304579 0.52981526 1.5940001 4278780721
0.63608193 0.52981526 1.5940001 4278452268
0.6419248 0.53214192 1.6010001 4278321927
0.64497429 0.53214192 1.6010001 4278190341
0.65126193 0.53480095 1.6090001 4278193152
-0.52044094 0.49775147 1.4890001 4286008942
-0.51760483 0.49775147 1.4890001 4282982464
-0.5147686 0.49775147 1.4890001 4281804292
-0.50986958 0.49574572 1.483 4282462222
-0.50704479 0.49574572 1.483 4282793251
-0.50422001 0.49574572 1.483 4280161536
-0.50342381 0.49775147 1.4890001 4279963411
-0.50058764 0.49775147 1.4890001 4280160790
-0.50009143 0.50009143 1.4960001 4279636243
-0.49724191 0.50009143 1.4960001 4279373071
-0.49670571 0.50243139 1.503 4279373325
-0.49384287 0.50243139 1.503 4280491806
-0.49098 0.50243139 1.503 4280887062
-0.49006572 0.50443715 1.5090001 4280887062
-0.38865715 0.4472743 1.3380001 4283714130
-0.38610861 0.4472743 1.3380001 4283650372
-0.38356 0.4472743 1.3380001 4284308302
-0.38414386 0.45095146 1.3490001 4284375365
-0.3815743 0.45095146 1.3490001 4284375365
-0.37731907 0.4489457 1.3430001 4284308818
-0.37476099 0.4489457 1.3430001 4284308818
-0.37220287 0.4489457 1.3430001 4284505429
-0.36964476 0.4489457 1.3430001 4284571222
-0.36572 0.4472743 1.3380001 4284636749
-0.36317143 0.4472743 1.3380001 4284373577
-0.36062288 0.4472743 1.3380001 4284242257
-0.35807431 0.4472743 1.3380001 4284242257
-0.3555257 0.4472743 1.3380001 4284111439
-0.35297716 0.4472743 1.3380001 4284045646
-0.35042858 0.4472743 1.3380001 4284045648
-0.34788001 0.4472743 1.3380001 4283914062
-0.34533146 0.4472743 1.3380001 4283913810
-0.34278288 0.4472743 1.3380001 4283913810
-0.34023428 0.4472743 1.3380001 4283979855
-0.3376857 0.4472743 1.3380001 4283979855
-0.33513716 0.4472743 1.3380001 4284110419
-0.33134574 0.44560286 1.3330001 4284044626
-0.32880667 0.44560286 1.3330001 4284242255
-0.32749146 0.4472743 1.3380001 4284044876
-0.32494286 0.4472743 1.3380001 4284044626
-0.32239428 0.4472743 1.3380001 4283913040
-0.31984574 0.4472743 1.3380001 4283782224
-0.31729716 0.4472743 1.3380001 4283716431
-0.31474859 0.4472743 1.3380001 4283716431
-0.31220001 0.4472743 1.3380001 4283716431
-0.30965143 0.4472743 1.3380001 4283650890
-0.30710286 0.4472743 1.3380001 4283585097
-0.30455428 0.4472743 1.3380001 4283847497
-0.30200574 0.4472743 1.3380001 4283715911
-0.29945716 0.4472743 1.3380001 4283715409
-0.29690859 0.4472743 1.3380001 4283781202
-0.29436001 0.4472743 1.3380001 4283715661
-0.29181144 0.4472743 1.3380001 4283452489
-0.2881819 0.44560286 1.3330001 4283978315
-0.28564286 0.44560286 1.3330001 4284307280
-0.28204191 0.44393143 1.3280001 4284175442
-0.27951238 0.44393143 1.3280001 4283846477
-0.27802572 0.44560286 1.3330001 4283780684
-0.27548668 0.44560286 1.3330001 4283846477
-0.27192384 0.44393143 1.3280001 4284109901
-0.26939431 0.44393143 1.3280001 4284307280
-0.26686478 0.44393143 1.3280001 4284241989
-0.26533049 0.44560286 1.3330001 4284307782
-0.26279142 0.44560286 1.3330001 4284241487
-0.25927621 0.44393143 1.3280001 4284175694
-0.25674668 0.44393143 1.3280001 4284569173
-0.25421715 0.44393143 1.3280001 4284832345
-0.25055048 0.4419257 1.322 4284766300
-0.24803238 0.4419257 1.322 4285292644
-0.24551429 0.4419257 1.322 4286016869
-0.2429962 0.4419257 1.322 4286674799
-0.2404781 0.4419257 1.322 4286281588
-0.23796 0.4419257 1.322 4285755244
-0.23544191 0.4419257 1.322 4285755244
-0.23292382 0.4419257 1.322 4285755244
-0.23040572 0.4419257 1.322 4285887080
-0.22788762 0.4419257 1.322 4286018666
-0.22536953 0.4419257 1.322 4286150502
-0.22285143 0.4419257 1.322 4286084709
-0.22033334 0.4419257 1.322 4286281572
-0.21699142 0.44025427 1.317 4286281572
-0.21448286 0.44025427 1.317 4286150502
-0.21197428 0.44025427 1.317 4286018916
-0.20946573 0.44025427 1.317 4285952873
-0.20695715 0.44025427 1.317 4286018666
-0.20444858 0.44025427 1.317 4286084722
-0.20194 0.44025427 1.317 4286084722
-0.19943142 0.44025427 1.317 4286150524
-0.19692287 0.44025427 1.317 4286150524
-0.19367619 0.43858287 1.312 4286018684
-0.19117714 0.43858287 1.312 4285821305
-0.18795906 0.43691143 1.307 4286017912
-0.18546954 0.43691143 1.307 4285952119
-0.18298002 0.43691143 1.307 4286018166
-0.18118095 0.43858287 1.312 4285557615
-0.17800096 0.43691143 1.307 4285951857
-0.17551143 0.43691143 1.307 4285886064
-0.17368382 0.43858287 1.312 4285754478
-0.17118476 0.43858287 1.312 4284372825
-0.16868572 0.43858287 1.312 4283979864
-0.16618666 0.43858287 1.312 4282532418
-0.16368763 0.43858287 1.312 4281546052
-0.16118857 0.43858287 1.312 4281743431
-0.15868953 0.43858287 1.312 4281677890
-0.15559524 0.43691143 1.307 4281480511
-0.15310572 0.43691143 1.307 4281677109
-0.1506162 0.43691143 1.307 4281874488
-0.14812668 0.43691143 1.307 4281808193
-0.14563715 0.43691143 1.307 4281873986
-0.14314763 0.43691143 1.307 4281808193
-0.1406581 0.43691143 1.307 4281808193
-0.13816857 0.43691143 1.307 4281808695
-0.13567904 0.43691143 1.307 4281874488
-0.13318951 0.43691143 1.307 4281874236
-0.13069999 0.43691143 1.307 4281874236
-0.12821047 0.43691143 1.307 4282005052
-0.12524 0.43524 1.302 4282005052
-0.12276001 0.43524 1.302 4281939259
-0.12074191 0.43691143 1.307 4282005052
-0.11825238 0.43691143 1.307 4281873734
-0.11576286 0.43691143 1.307 4281742148
-0.11327334 0.43691143 1.307 4281742148
-0.11078382 0.43691143 1.307 4281742148
-0.10829429 0.43691143 1.307 4281873466
-0.1054 0.43524 1.302 4281676087
-0.10292 0.43524 1.302 4281347642
-0.10082572 0.43691143 1.307 4281413435
-0.097960003 0.43524 1.302 4281412665
-0.095480002 0.43524 1.302 4281412665
-0.093000002 0.43524 1.302 4281084720
-0.090520002 0.43524 1.302 4281150513
-0.088040002 0.43524 1.302 4281084720
-0.085560001 0.43524 1.302 4281018927
-0.083080001 0.43524 1.302 4280887593
-0.080290474 0.43356857 1.2970001 4281084972
-0.077820003 0.43356857 1.2970001 4280953134
-0.075349525 0.43356857 1.2970001 4280953134
-0.072879046 0.43356857 1.2970001 4280953386
-0.070408568 0.43356857 1.2970001 4281019179
-0.067938097 0.43356857 1.2970001 4280953134
-0.065467626 0.43356857 1.2970001 4280821548
-0.062754288 0.43189713 1.2920001 4280953386
-0.060293335 0.43189713 1.2920001 4280953386
-0.057832383 0.43189713 1.2920001 4281018409
-0.05537143 0.43189713 1.2920001 4281018409
-0.052910481 0.43189713 1.2920001 4281083950
-0.050449528 0.43189713 1.2920001 4281149743
-0.047988571 0.43189713 1.2920001 4281149743
-0.045527618 0.43189713 1.2920001 4281149743
-0.042933334 0.43056002 1.2880001 4281215286
-0.040480006 0.43056002 1.2880001 4281281079
-0.038026668 0.43056002 1.2880001 4281611316
-0.035573337 0.43056002 1.2880001 4282006074
-0.033222858 0.43189713 1.2920001 4282400814
-0.030761907 0.43189713 1.2920001 4282663986
-0.028300954 0.43189713 1.2920001 4282400312
-0.025840001 0.43189713 1.2920001 4282400312
-0.023379048 0.43189713 1.2920001 4282795070
-0.020918095 0.43189713 1.2920001 4282795070
-0.018457144 0.43189713 1.2920001 4282729027
-0.015946668 0.43056002 1.2880001 4282663234
-0.013493334 0.43056002 1.2880001 4282663234
-0.011040001 0.43056002 1.2880001 4282729027
-0.0085866675 0.43056002 1.2880001 4282924866
-0.0061333338 0.43056002 1.2880001 4282859073
-0.0036914286 0.43189713 1.2920001 4283122245
-0.0012304762 0.43189713 1.2920001 4283582796
0.0012304762 0.43189713 1.2920001 4283386946
0.0036800003 0.43056002 1.2880001 4283321153
0.0061333338 0.43056002 1.2880001 4283320901
0.0085866675 0.43056002 1.2880001 4283452487
0.011040001 0.43056002 1.2880001 4283452237
0.013493334 0.43056002 1.2880001 4283452237
0.015946668 0.43056002 1.2880001 4283321423
0.0184 0.43056002 1.2880001 4283387216
0.020853335 0.43056002 1.2880001 4283387716
0.023306668 0.43056002 1.2880001 4283387716
0.025760002 0.43056002 1.2880001 4283453007
0.028213335 0.43056002 1.2880001 4283518800
0.03066667 0.43056002 1.2880001 4283518802
0.033119999 0.43056002 1.2880001 4283518802
0.035435241 0.42888859 1.2830001 4283453522
0.03787905 0.42888859 1.2830001 4283453522
0.040480006 0.43056002 1.2880001 4283519315
0.042933334 0.43056002 1.2880001 4283519315
0.045386672 0.43056002 1.2880001 4283716442
0.047840003 0.43056002 1.2880001 4283716442
0.050098099 0.42888859 1.2830001 4283716179
0.052541912 0.42888859 1.2830001 4283716179
0.054985717 0.42888859 1.2830001 4283716179
0.05742953 0.42888859 1.2830001 4283781972
0.059873335 0.42888859 1.2830001 4283716181
0.062074292 0.42721716 1.2780001 4283650388
0.06450858 0.42721716 1.2780001 4283322727
0.066942863 0.42721716 1.2780001 4284046450
0.069377147 0.42721716 1.2780001 4284113249
0.071811438 0.42721716 1.2780001 4286021246
0.074245721 0.42721716 1.2780001 4287203955
0.07638 0.42554572 1.273 4287401334
0.078804761 0.42554572 1.273 4287662964
0.081229523 0.42554572 1.273 4287597171
0.083654284 0.42554572 1.273 4287401084
0.086079046 0.42554572 1.273 4287532670
0.088851437 0.42721716 1.2780001 4287861124
0.09128572 0.42721716 1.2780001 4287861124
0.093720004 0.42721716 1.2780001 4287795088
0.095778093 0.42554572 1.273 4288189846
0.098202854 0.42554572 1.273 4288124553
0.10062762 0.42554572 1.273 4289111448
0.10305239 0.42554572 1.273 4289637051
0.10547714 0.42554572 1.273 4289571258
0.10747809 0.42387429 1.268 4289834928
0.10989333 0.42387429 1.268 4289769135
0.11230858 0.42387429 1.268 4289506487
0.11472381 0.42387429 1.268 4289703866
0.11713905 0.42387429 1.268 4289439929
0.11955428 0.42387429 1.268 4289439929
0.12196951 0.42387429 1.268 4289505456
0.12438476 0.42387429 1.268 4289373870
0.1268 0.42387429 1.268 4288847531
0.12921523 0.42387429 1.268 4288650152
0.13163048 0.42387429 1.268 4288650152
0.13404572 0.42387429 1.268 4288452773
0.13646095 0.42387429 1.268 4288584100
0.1388762 0.42387429 1.268 4288715686
0.14129142 0.42387429 1.268 4288716190
0.14370666 0.42387429 1.268 4288781983
0.1461219 0.42387429 1.268 4288978347
0.14853714 0.42387429 1.268 4289767863
0.15154761 0.42554572 1.273 4289374120
0.15397239 0.42554572 1.273 4289308327
0.15639713 0.42554572 1.273 4289242786
0.15882191 0.42554572 1.273 4288913821
0.16124667 0.42554572 1.273 4288781729
0.16367142 0.42554572 1.273 4288781729
0.1660962 0.42554572 1.273 4288716447
0.16852096 0.42554572 1.273 4288716447
0.1709457 0.42554572 1.273 4288650654
0.17337048 0.42554572 1.273 4288584861
0.17579524 0.42554572 1.273 4288716962
0.17821999 0.42554572 1.273 4288848548
0.18064477 0.42554572 1.273 4288848287
0.18306953 0.42554572 1.273 4288782494
0.18549427 0.42554572 1.273 4288781740
0.18791905 0.42554572 1.273 4289242291
0.18959619 0.42387429 1.268 4289374390
0.19201143 0.42387429 1.268 4289834941
0.19381334 0.42253718 1.2640001 4289835200
0.19622096 0.42253718 1.2640001 4289111477
0.19862857 0.42253718 1.2640001 4288914346
0.20024095 0.42086574 1.2590001 4288585381
0.20263906 0.42086574 1.2590001 4288847792
0.20503716 0.42086574 1.2590001 4288453034
0.20743524 0.42086574 1.2590001 4288584075
0.20983334 0.42086574 1.2590001 4284702288
0.21223144 0.42086574 1.2590001 4281937469
0.21462953 0.42086574 1.2590001 4278910991
0.26719049 0.51814288 1.5500001 4279241235
0.27014288 0.51814288 1.5500001 4282991436
0.27309522 0.51814288 1.5500001 4285030205
0.27604762 0.51814288 1.5500001 4284898619
0.27900001 0.51814288 1.5500001 4284438330
0.28195238 0.51814288 1.5500001 4284240951
0.28490478 0.51814288 1.5500001 4284109653
0.28785715 0.51814288 1.5500001 4285162341
0.29080951 0.51814288 1.5500001 4285555332
0.29376191 0.51814288 1.5500001 4286739606
0.29671431 0.51814288 1.5500001 4287136370
0.30102 0.5204829 1.557 4287333749
0.30398571 0.5204829 1.557 4287268481
0.30695143 0.5204829 1.557 4287465860
0.30991712 0.5204829 1.557 4287661953
0.31428954 0.52282292 1.5640001 4287464574
0.31584859 0.5204829 1.557 4287332243
0.31881428 0.5204829 1.557 4287398036
0.32178003 0.5204829 1.557 4287399042
0.32474571 0.5204829 1.557 4287662214
0.32771143 0.5204829 1.557 4287531160
0.33067715 0.5204829 1.557 4287465367
0.33364287 0.5204829 1.557 4287466643
0.33660856 0.5204829 1.557 4287532436
0.33957428 0.5204829 1.557 4287334794
0.34254003 0.5204829 1.557 4287269001
0.34550571 0.5204829 1.557 4287332997
0.35003814 0.52282292 1.5640001 4287267204
0.35301718 0.52282292 1.5640001 4286939016
0.35599619 0.52282292 1.5640001 4286873223
0.35736856 0.5204829 1.557 4286742146
0.36033431 0.5204829 1.557 4286281595
0.36166668 0.51814288 1.5500001 4286347642
0.36297241 0.51580286 1.5430001 4286281849
0.36259145 0.51112288 1.529 4285228650
0.36550382 0.51112288 1.529 4285689201
0.36841619 0.51112288 1.529 4288119933
0.37132859 0.51112288 1.529 4290883239
0.37424096 0.51112288 1.529 4288909976
0.37715334 0.51112288 1.529 4284041294
0.38006571 0.51112288 1.529 4281873466
0.38297811 0.51112288 1.529 4278912781
0.38589048 0.51112288 1.529 4278913536
0.39058286 0.51346284 1.536 4278650368
0.39530191 0.51580286 1.5430001 4278779916
0.39824095 0.51580286 1.5430001 4278714379
0.39936 0.51346284 1.536 4279306242
0.4022857 0.51346284 1.536 4278977280
0.40521145 0.51346284 1.536 4279241235
0.40813714 0.51346284 1.536 4279701786
0.41106284 0.51346284 1.536 4280229163
0.41398859 0.51346284 1.536 4281150265
0.41691428 0.51346284 1.536 4282268244
0.41984001 0.51346284 1.536 4283189346
0.4227657 0.51346284 1.536 4283518302
0.42569143 0.51346284 1.536 4284110439
0.42861715 0.51346284 1.536 4285295695
0.42957622 0.51112288 1.529 4285953625
0.43248856 0.51112288 1.529 4286150513
0.43739429 0.51346284 1.536 4287334787
0.44031999 0.51346284 1.536 4287531662
0.44324571 0.51346284 1.536 4288847522
0.44820479 0.51580286 1.5430001 4289109921
0.44909713 0.51346284 1.536 4289241507
0.45202285 0.51346284 1.536 4288386473
0.45494857 0.51346284 1.536 4288518059
0.4578743 0.51346284 1.536 4288255909
0.4587 0.51112288 1.529 4287861151
0.45980099 0.50911719 1.5230001 4287793291
0.46057522 0.50677717 1.516 4287661705
0.46346286 0.50677717 1.516 4287463282
0.46635047 0.50677717 1.516 4284699976
0.46707144 0.50443715 1.5090001 4285223218
0.46994573 0.50443715 1.5090001 4285617976
0.47282001 0.50443715 1.5090001 4285877565
0.4756943 0.50443715 1.5090001 4286798667
0.47856858 0.50443715 1.5090001 4287067790
0.47952858 0.50243139 1.503 4287067790
0.48239145 0.50243139 1.503 4287002760
0.48525429 0.50243139 1.503 4286279037
0.48811716 0.50243139 1.503 4286016843
0.49439237 0.50009143 1.4960001 4284698990
0.49724191 0.50009143 1.4960001 4283779865
0.53017718 0.53017718 1.5860001 4287332687
0.53319812 0.53017718 1.5860001 4287333531
0.53621906 0.53017718 1.5860001 4283978088
0.54196006 0.53285146 1.5940001 4284107277
0.5449962 0.53285146 1.5940001 4286673204
0.5480324 0.53285146 1.5940001 4286211949
0.5510686 0.53285146 1.5940001 4281343267
0.5541048 0.53285146 1.5940001 4283577665
0.55714101 0.53285146 1.5940001 4287920003
0.50781429 0.48304287 1.4450001 4286476627
0.51056671 0.48304287 1.4450001 4281081601
0.51331908 0.48304287 1.4450001 4282593885
0.5560714 0.5204829 1.557 4287659946
0.55903715 0.5204829 1.557 4286611816
0.5620029 0.5204829 1.557 4280098309
0.53811717 0.49574572 1.483 4281281849
0.54094189 0.49574572 1.483 4287269012
0.54156667 0.49374005 1.4770001 4286474913
0.54438007 0.49374005 1.4770001 4282132575
0.54719335 0.49374005 1.4770001 4283641925
0.59357524 0.53285146 1.5940001 4288510607
0.59661144 0.53285146 1.5940001 4287467058
0.5996477 0.53285146 1.5940001 4286743335
0.60268384 0.53285146 1.5940001 4285888035
0.60838002 0.53519148 1.6010001 4287664446
0.61142957 0.53519148 1.6010001 4287197570
0.61447906 0.53519148 1.6010001 4286144882
0.62639999 0.54288006 1.6240001 4285556524
0.6236791 0.53786576 1.6090001 4286543419
0.62674385 0.53786576 1.6090001 4286215309
0.62393719 0.53285146 1.5940001 4285031035
0.62697333 0.53285146 1.5940001 4282728775
0.63000959 0.53285146 1.5940001 4282794568
0.63304579 0.53285146 1.5940001 4282400096
0.63608193 0.53285146 1.5940001 4280952650
0.6419248 0.53519148 1.6010001 4278656067
0.64497429 0.53519148 1.6010001 4278191661
0.64802384 0.53519148 1.6010001 4278190870
-0.52044094 0.50058764 1.4890001 4285156124
-0.51760483 0.50058764 1.4890001 4280484864
-0.5147686 0.50058764 1.4890001 4280156928
-0.51193243 0.50058764 1.4890001 4282393889
-0.50909621 0.50058764 1.4890001 4284501579
-0.50626004 0.50058764 1.4890001 4280882964
-0.50342381 0.50058764 1.4890001 4279963161
-0.50294095 0.50294095 1.4960001 4280028954
-0.50009143 0.50294095 1.4960001 4280094997
-0.49724191 0.50294095 1.4960001 4279634446
-0.49670571 0.50529432 1.503 4279176196
-0.49384287 0.50529432 1.503 4280689435
-0.49098 0.50529432 1.503 4281413667
-0.49006572 0.5073114 1.5090001 4281150495
-0.38865715 0.44982287 1.3380001 4283648589
-0.38610861 0.44982287 1.3380001 4283519556
-0.38356 0.44982287 1.3380001 4284111693
-0.38243523 0.45150381 1.3430001 4284506710
-0.37987715 0.45150381 1.3430001 4284243538
-0.37731907 0.45150381 1.3430001 4284243540
-0.37476099 0.45150381 1.3430001 4284243540
-0.37220287 0.45150381 1.3430001 4284505429
-0.36964476 0.45150381 1.3430001 4284373843
-0.36572 0.44982287 1.3380001 4284175694
-0.36317143 0.44982287 1.3380001 4284241487
-0.36062288 0.44982287 1.3380001 4284241487
-0.35807431 0.44982287 1.3380001 4284241487
-0.3555257 0.44982287 1.3380001 4283979855
-0.35297716 0.44982287 1.3380001 4283979855
-0.35042858 0.44982287 1.3380001 4284045396
-0.34788001 0.44982287 1.3380001 4283913810
-0.34533146 0.44982287 1.3380001 4283913040
-0.34278288 0.44982287 1.3380001 4283913040
-0.34023428 0.44982287 1.3380001 4283979085
-0.3376857 0.44982287 1.3380001 4283979085
-0.33388478 0.4481419 1.3330001 4284044878
-0.33134574 0.4481419 1.3330001 4284044878
-0.32880667 0.4481419 1.3330001 4284372821
-0.32749146 0.44982287 1.3380001 4284241235
-0.32494286 0.44982287 1.3380001 4283913040
-0.32239428 0.44982287 1.3380001 4283584075
-0.31984574 0.44982287 1.3380001 4283715143
-0.31729716 0.44982287 1.3380001 4283846729
-0.31474859 0.44982287 1.3380001 4283780684
-0.31220001 0.44982287 1.3380001 4283714891
-0.30965143 0.44982287 1.3380001 4283650120
-0.30710286 0.44982287 1.3380001 4283781706
-0.30341619 0.4481419 1.3330001 4283912522
-0.30087715 0.4481419 1.3330001 4283846729
-0.29833809 0.4481419 1.3330001 4283715913
-0.29579908 0.4481419 1.3330001 4283715913
-0.29326001 0.4481419 1.3330001 4283715913
-0.29072097 0.4481419 1.3330001 4283518534
-0.2881819 0.4481419 1.3330001 4284043322
-0.28564286 0.4481419 1.3330001 4284240701
-0.28204191 0.44646096 1.3280001 4283978063
-0.27951238 0.44646096 1.3280001 4283714891
-0.27802572 0.4481419 1.3330001 4283584075
-0.27445334 0.44646096 1.3280001 4283649868
-0.27192384 0.44646096 1.3280001 4284108874
-0.26939431 0.44646096 1.3280001 4283977288
-0.26686478 0.44646096 1.3280001 4283845439
-0.26433524 0.44646096 1.3280001 4283911232
-0.26180574 0.44646096 1.3280001 4284175694
-0.25810477 0.44444382 1.322 4284109901
-0.25558665 0.44444382 1.322 4284307028
-0.2530686 0.44444382 1.322 4284241235
-0.25055048 0.44444382 1.322 4284634446
-0.24803238 0.44444382 1.322 4285094997
-0.24551429 0.44444382 1.322 4285818709
-0.2429962 0.44444382 1.322 4286674018
-0.2404781 0.44444382 1.322 4286150252
-0.23796 0.44444382 1.322 4285689701
-0.23544191 0.44444382 1.322 4285819490
-0.23292382 0.44444382 1.322 4286016869
-0.23040572 0.44444382 1.322 4286083164
-0.22788762 0.44444382 1.322 4286083164
-0.22536953 0.44444382 1.322 4285952859
-0.22285143 0.44444382 1.322 4286216031
-0.21950001 0.44276285 1.317 4286085222
-0.21699142 0.44276285 1.317 4286085222
-0.21448286 0.44276285 1.317 4286216558
-0.21197428 0.44276285 1.317 4286019179
-0.20946573 0.44276285 1.317 4286083945
-0.20695715 0.44276285 1.317 4286149738
-0.20444858 0.44276285 1.317 4286150002
-0.20194 0.44276285 1.317 4286347381
-0.19943142 0.44276285 1.317 4286281604
-0.19692287 0.44276285 1.317 4286215811
-0.19367619 0.44108191 1.312 4286150522
-0.19117714 0.44108191 1.312 4286150522
-0.18795906 0.43940094 1.307 4286347642
-0.18546954 0.43940094 1.307 4286216056
-0.18298002 0.43940094 1.307 4286281084
-0.18049048 0.43940094 1.307 4285820533
-0.17800096 0.43940094 1.307 4286083443
-0.17551143 0.43940094 1.307 4285820271
-0.17368382 0.44108191 1.312 4285688681
-0.17118476 0.44108191 1.312 4284504407
-0.16868572 0.44108191 1.312 4284110939
-0.16618666 0.44108191 1.312 4282400321
-0.16306382 0.43940094 1.307 4281809476
-0.1605743 0.43940094 1.307 4281809476
-0.15808477 0.43940094 1.307 4281743431
-0.15559524 0.43940094 1.307 4281611845
-0.15310572 0.43940094 1.307 4281612097
-0.1506162 0.43940094 1.307 4281612097
-0.14812668 0.43940094 1.307 4281808193
-0.14563715 0.43940094 1.307 4281808193
-0.14314763 0.43940094 1.307 4281873986
-0.1406581 0.43940094 1.307 4281808193
-0.13816857 0.43940094 1.307 4281677890
-0.13567904 0.43940094 1.307 4281677890
-0.13318951 0.43940094 1.307 4281939779
-0.13069999 0.43940094 1.307 4281939779
-0.12821047 0.43940094 1.307 4281940029
-0.12524 0.43772 1.302 4281808443
-0.12276001 0.43772 1.302 4281612097
-0.12074191 0.43940094 1.307 4281546304
-0.11825238 0.43940094 1.307 4281546304
-0.11576286 0.43940094 1.307 4281546304
-0.11327334 0.43940094 1.307 4281742148
-0.11036 0.43772 1.302 4281742148
-0.10788 0.43772 1.302 4281611064
-0.1054 0.43772 1.302 4281611064
-0.10292 0.43772 1.302 4281545271
-0.10044 0.43772 1.302 4281413685
-0.097960003 0.43772 1.302 4281347892
-0.095480002 0.43772 1.302 4281347892
-0.093000002 0.43772 1.302 4281216306
-0.090520002 0.43772 1.302 4281150513
-0.087701909 0.43603906 1.2970001 4281216306
-0.085231431 0.43603906 1.2970001 4281150513
-0.082760952 0.43603906 1.2970001 4281281581
-0.080290474 0.43603906 1.2970001 4281281581
-0.077520005 0.43435812 1.2920001 4281150513
-0.075059049 0.43435812 1.2920001 4281150513
-0.072879046 0.43603906 1.2970001 4281084972
-0.070408568 0.43603906 1.2970001 4281019179
-0.067938097 0.43603906 1.2970001 4280822831
-0.065467626 0.43603906 1.2970001 4280625452
-0.062754288 0.43435812 1.2920001 4280887593
-0.060293335 0.43435812 1.2920001 4280887593
-0.057832383 0.43435812 1.2920001 4281018657
-0.05537143 0.43435812 1.2920001 4281150243
-0.052910481 0.43435812 1.2920001 4281149743
-0.050293338 0.43301335 1.2880001 4281018157
-0.047840003 0.43301335 1.2880001 4281083950
-0.045386672 0.43301335 1.2880001 4281149743
-0.042933334 0.43301335 1.2880001 4281215536
-0.040480006 0.43301335 1.2880001 4281676087
-0.038026668 0.43301335 1.2880001 4282072630
-0.035573337 0.43301335 1.2880001 4282138423
-0.033119999 0.43301335 1.2880001 4282335539
-0.030761907 0.43435812 1.2920001 4282467125
-0.028300954 0.43435812 1.2920001 4282400562
-0.025840001 0.43435812 1.2920001 4282400562
-0.023379048 0.43435812 1.2920001 4282727487
-0.020918095 0.43435812 1.2920001 4282990659
-0.018457144 0.43435812 1.2920001 4282662982
-0.015946668 0.43301335 1.2880001 4282531396
-0.013493334 0.43301335 1.2880001 4282466105
-0.011040001 0.43301335 1.2880001 4282597691
-0.0085866675 0.43301335 1.2880001 4282859073
-0.0061333338 0.43301335 1.2880001 4282793280
-0.0036914286 0.43435812 1.2920001 4282727487
-0.0012304762 0.43435812 1.2920001 4283188038
0.0012266667 0.43301335 1.2880001 4283386432
0.0036800003 0.43301335 1.2880001 4283320639
0.0061333338 0.43301335 1.2880001 4283451462
0.0085866675 0.43301335 1.2880001 4283714634
0.011040001 0.43301335 1.2880001 4283648589
0.013493334 0.43301335 1.2880001 4283517003
0.015946668 0.43301335 1.2880001 4283321421
0.0184 0.43301335 1.2880001 4283387214
0.020853335 0.43301335 1.2880001 4283387466
0.023306668 0.43301335 1.2880001 4283387466
0.025760002 0.43301335 1.2880001 4283387466
0.028213335 0.43301335 1.2880001 4283453259
0.03066667 0.43301335 1.2880001 4283453007
0.033119999 0.43301335 1.2880001 4283453007
0.035435241 0.43133241 1.2830001 4283387729
0.03787905 0.43133241 1.2830001 4283387729
0.040480006 0.43301335 1.2880001 4283453522
0.042933334 0.43301335 1.2880001 4283453522
0.045386672 0.43301335 1.2880001 4283519315
0.047840003 0.43301335 1.2880001 4283650901
0.050098099 0.43133241 1.2830001 4283650388
0.052541912 0.43133241 1.2830001 4283650388
0.054985717 0.43133241 1.2830001 4283650388
0.05742953 0.43133241 1.2830001 4283716181
0.059873335 0.43133241 1.2830001 4283716181
0.062074292 0.42965147 1.2780001 4283650388
0.06450858 0.42965147 1.2780001 4283388249
0.066942863 0.42965147 1.2780001 4284177765
0.069377147 0.42965147 1.2780001 4284310376
0.071811438 0.42965147 1.2780001 4286020994
0.074245721 0.42965147 1.2780001 4286480000
0.07638 0.42797047 1.273 4287466895
0.078804761 0.42797047 1.273 4287532409
0.081229523 0.42797047 1.273 4287335030
0.083654284 0.42797047 1.273 4287466366
0.086079046 0.42797047 1.273 4287532159
0.088851437 0.42965147 1.2780001 4287860872
0.09128572 0.42965147 1.2780001 4287860872
0.093720004 0.42965147 1.2780001 4287794827
0.095778093 0.42797047 1.273 4288123792
0.098202854 0.42797047 1.273 4287993480
0.10062762 0.42797047 1.273 4288717203
0.10305239 0.42797047 1.273 4289046186
0.10547714 0.42797047 1.273 4289243565
0.10747809 0.42628953 1.268 4289835443
0.10989333 0.42628953 1.268 4289769650
0.11230858 0.42628953 1.268 4289505974
0.11472381 0.42628953 1.268 4289505974
0.11713905 0.42628953 1.268 4289308086
0.11955428 0.42628953 1.268 4289439672
0.12196951 0.42628953 1.268 4289768115
0.12438476 0.42628953 1.268 4289373357
0.1268 0.42628953 1.268 4289177002
0.12921523 0.42628953 1.268 4288848037
0.13163048 0.42628953 1.268 4288781479
0.13404572 0.42628953 1.268 4288584100
0.13646095 0.42628953 1.268 4288584352
0.1388762 0.42628953 1.268 4288715938
0.14129142 0.42628953 1.268 4289043874
0.14370666 0.42628953 1.268 4289109667
0.1461219 0.42628953 1.268 4288912808
0.14853714 0.42628953 1.268 4289439152
0.15095238 0.42628953 1.268 4289111207
0.15336761 0.42628953 1.268 4288913828
0.15578286 0.42628953 1.268 4288913058
0.15819809 0.42628953 1.268 4288781472
0.16061333 0.42628953 1.268 4288781472
0.16302858 0.42628953 1.268 4288781472
0.16544381 0.42628953 1.268 4288716190
0.16785905 0.42628953 1.268 4288716190
0.17027427 0.42628953 1.268 4288716190
0.17268953 0.42628953 1.268 4288584604
0.17510477 0.42628953 1.268 4288584863
0.17751999 0.42628953 1.268 4288650656
0.17993525 0.42628953 1.268 4288716699
0.18235047 0.42628953 1.268 4288650906
0.18476571 0.42628953 1.268 4288650406
0.18718095 0.42628953 1.268 4289242543
0.18959619 0.42628953 1.268 4289834680
0.19140573 0.42494476 1.2640001 4290032059
0.19381334 0.42494476 1.2640001 4290098109
0.19544476 0.42326385 1.2590001 4289111214
0.19784287 0.42326385 1.2590001 4288652464
0.20024095 0.42326385 1.2590001 4288323499
0.20263906 0.42326385 1.2590001 4288716456
0.20503716 0.42326385 1.2590001 4288387491
0.20743524 0.42326385 1.2590001 4288649868
0.20983334 0.42326385 1.2590001 4284373323
0.21223144 0.42326385 1.2590001 4282069037
0.21462953 0.42326385 1.2590001 4279634696
0.21702763 0.42326385 1.2590001 4280029708
0.26892287 0.51874191 1.5430001 4283187772
0.27186191 0.51874191 1.5430001 4283188540
0.27604762 0.52109528 1.5500001 4282793782
0.27900001 0.52109528 1.5500001 4282398504
0.28195238 0.52109528 1.5500001 4282201125
0.28490478 0.52109528 1.5500001 4281808175
0.28785715 0.52109528 1.5500001 4281676589
0.29080951 0.52109528 1.5500001 4284896578
0.29376191 0.52109528 1.5500001 4286804575
0.29671431 0.52109528 1.5500001 4287134839
0.29966667 0.52109528 1.5500001 4287200632
0.30261904 0.52109528 1.5500001 4286939516
0.30557144 0.52109528 1.5500001 4287334274
0.3085238 0.52109528 1.5500001 4287530626
0.31288287 0.52344859 1.557 4287333247
0.3144286 0.52109528 1.5500001 4287398022
0.31738096 0.52109528 1.5500001 4287398022
0.32033333 0.52109528 1.5500001 4287399042
0.32328573 0.52109528 1.5500001 4287530628
0.3262381 0.52109528 1.5500001 4287793296
0.32919049 0.52109528 1.5500001 4287793296
0.33214289 0.52109528 1.5500001 4287794827
0.33509523 0.52109528 1.5500001 4287926413
0.33804762 0.52109528 1.5500001 4287729034
0.34100002 0.52109528 1.5500001 4287531655
0.34395239 0.52109528 1.5500001 4287726985
0.34690478 0.52109528 1.5500001 4287726985
0.34985715 0.52109528 1.5500001 4287398540
0.35280952 0.52109528 1.5500001 4287332747
0.35576192 0.52109528 1.5500001 4287071365
0.35709432 0.51874191 1.5430001 4286413435
0.36003336 0.51874191 1.5430001 4286413183
0.36132571 0.5163886 1.536 4286018425
0.36259145 0.51403522 1.529 4285359968
0.36406955 0.51201808 1.5230001 4285162589
0.36697051 0.51201808 1.5230001 4288185719
0.36987144 0.51201808 1.5230001 4290291095
0.37277243 0.51201808 1.5230001 4288845214
0.37567335 0.51201808 1.5230001 4283581774
0.38006571 0.51403522 1.529 4281480493
0.38297811 0.51403522 1.529 4279967254
0.38589048 0.51403522 1.529 4279967252
0.38880286 0.51403522 1.529 4281085733
0.39350855 0.5163886 1.536 4280889914
0.39643431 0.5163886 1.536 4279837226
0.39936 0.5163886 1.536 4278719502
0.4022857 0.5163886 1.536 4278192130
0.40521145 0.5163886 1.536 4278190593
0.40813714 0.5163886 1.536 4278190850
0.41106284 0.5163886 1.536 4278190595
0.41210189 0.51403522 1.529 4278190338
0.4150143 0.51403522 1.529 4278190341
0.41792667 0.51403522 1.529 4278387977
0.42083904 0.51403522 1.529 4278519838
0.42375144 0.51403522 1.529 4279967284
0.42498955 0.51201808 1.5230001 4281280041
0.42789051 0.51201808 1.5230001 4282069557
0.43079144 0.51201808 1.5230001 4283317559
0.43540096 0.51403522 1.529 4284107075
0.43831334 0.51403522 1.529 4284961621
0.44122574 0.51403522 1.529 4286606446
0.44413808 0.51403522 1.529 4286673543
0.44705048 0.51403522 1.529 4288055196
0.44996285 0.51403522 1.529 4287729045
0.45287526 0.51403522 1.529 4287992217
0.45578763 0.51403522 1.529 4288386462
0.45690003 0.51201808 1.5230001 4288189083
0.45980099 0.51201808 1.5230001 4287794323
0.46270195 0.51201808 1.5230001 4287465358
0.46560287 0.51201808 1.5230001 4287464583
0.46635047 0.50966477 1.516 4285490793
0.4692381 0.50966477 1.516 4284175442
0.46994573 0.5073114 1.5090001 4283517512
0.47282001 0.5073114 1.5090001 4282858553
0.4756943 0.5073114 1.5090001 4283648069
0.47856858 0.5073114 1.5090001 4286213246
0.47952858 0.50529432 1.503 4285950074
0.48239145 0.50529432 1.503 4285818477
0.48525429 0.50529432 1.503 4285818477
0.48811716 0.50529432 1.503 4284634694
0.49154285 0.50294095 1.4960001 4288778910
0.49439237 0.50294095 1.4960001 4286212983
0.49724191 0.50294095 1.4960001 4285160254
0.50009143 0.50294095 1.4960001 4287528802
0.50294095 0.50294095 1.4960001 4287401370
0.50579047 0.50294095 1.4960001 4284703857
0.50863999 0.50294095 1.4960001 4284305720
0.50704479 0.4985705 1.483 4286147924
0.50780666 0.49655336 1.4770001 4285100155
0.51062006 0.49655336 1.4770001 4281284161
0.50230956 0.48579526 1.4450001 4281015570
0.50506192 0.48579526 1.4450001 4283910462
0.50781429 0.48579526 1.4450001 4284766552
0.51056671 0.48579526 1.4450001 4281476902
0.51331908 0.48579526 1.4450001 4282921784
0.52750003 0.49655336 1.4770001 4287264122
0.53031337 0.49655336 1.4770001 4286151026
0.53312665 0.49655336 1.4770001 4280821793
0.53811717 0.4985705 1.483 4281739822
0.54094189 0.4985705 1.483 4286082160
0.54156667 0.49655336 1.4770001 4285294216
0.54438007 0.49655336 1.4770001 4280557120
0.54719335 0.49655336 1.4770001 4281079859
0.55506575 0.4985705 1.483 4286545497
0.55789047 0.4985705 1.483 4283979570
0.60838002 0.53824097 1.6010001 4287659338
0.61142957 0.53824097 1.6010001 4288115090
0.61447906 0.53824097 1.6010001 4287391367
0.62639999 0.54597336 1.6240001 4286475834
0.6236791 0.54093051 1.6090001 4287133764
0.62674385 0.54093051 1.6090001 4288055207
0.62393719 0.5358876 1.5940001 4285291901
0.62697333 0.5358876 1.5940001 4283121988
0.63000959 0.5358876 1.5940001 4287464326
0.63304579 0.5358876 1.5940001 4286615963
0.63608193 0.5358876 1.5940001 4284839552
0.6419248 0.53824097 1.6010001 4283654023
0.64497429 0.53824097 1.6010001 4280430166
0.64802384 0.53824097 1.6010001 4279566425
-0.52288765 0.50579047 1.4960001 4284502016
-0.52003813 0.50579047 1.4960001 4281870336
-0.5147686 0.50342381 1.4890001 4281735729
-0.51193243 0.50342381 1.4890001 4282130487
-0.50909621 0.50342381 1.4890001 4281802285
-0.50626004 0.50342381 1.4890001 4281012769
-0.50342381 0.50342381 1.4890001 4280030751
-0.50294095 0.50579047 1.4960001 4279833372
-0.50009143 0.50579047 1.4960001 4279702036
-0.49724191 0.50579047 1.4960001 4279175692
-0.49439237 0.50579047 1.4960001 4279045121
-0.49154285 0.50579047 1.4960001 4280887325
-0.49098 0.50815713 1.503 4281019411
-0.49006572 0.51018572 1.5090001 4280953618
-0.39010954 0.45406193 1.3430001 4283517757
-0.38755143 0.45406193 1.3430001 4283519288
-0.38499334 0.45406193 1.3430001 4283782460
-0.38243523 0.45406193 1.3430001 4283979855
-0.37987715 0.45406193 1.3430001 4283848269
-0.37591431 0.45237145 1.3380001 4284045648
-0.37336573 0.45237145 1.3380001 4284111441
-0.37081718 0.45237145 1.3380001 4284242255
-0.36826858 0.45237145 1.3380001 4284044876
-0.36572 0.45237145 1.3380001 4284175694
-0.36317143 0.45237145 1.3380001 4284109901
-0.36062288 0.45237145 1.3380001 4283979085
-0.35807431 0.45237145 1.3380001 4283979085
-0.3555257 0.45237145 1.3380001 4283848017
-0.35297716 0.45237145 1.3380001 4283650638
-0.35042858 0.45237145 1.3380001 4283913040
-0.34788001 0.45237145 1.3380001 4283847247
-0.34533146 0.45237145 1.3380001 4283847247
-0.34278288 0.45237145 1.3380001 4283913040
-0.33896285 0.45068097 1.3330001 4283913290
-0.33642384 0.45068097 1.3330001 4283847497
-0.33388478 0.45068097 1.3330001 4283781706
-0.33134574 0.45068097 1.3330001 4283781706
-0.32880667 0.45068097 1.3330001 4283978063
-0.32749146 0.45237145 1.3380001 4284043856
-0.32494286 0.45237145 1.3380001 4283978315
-0.32239428 0.45237145 1.3380001 4283451971
-0.31984574 0.45237145 1.3380001 4283715384
-0.31729716 0.45237145 1.3380001 4283978556
-0.31474859 0.45237145 1.3380001 4283912522
-0.31220001 0.45237145 1.3380001 4283780936
-0.3084943 0.45068097 1.3330001 4283715913
-0.30595526 0.45068097 1.3330001 4283781706
-0.30341619 0.45068097 1.3330001 4283847499
-0.30087715 0.45068097 1.3330001 4283847499
-0.29833809 0.45068097 1.3330001 4283847497
-0.29579908 0.45068097 1.3330001 4283847497
-0.29326001 0.45068097 1.3330001 4283847751
-0.29072097 0.45068097 1.3330001 4283716165
-0.2881819 0.45068097 1.3330001 4283781683
-0.28564286 0.45068097 1.3330001 4283913269
-0.28204191 0.44899049 1.3280001 4283847499
-0.27951238 0.44899049 1.3280001 4283781706
-0.27698284 0.44899049 1.3280001 4283781706
-0.27445334 0.44899049 1.3280001 4283847499
-0.27192384 0.44899049 1.3280001 4284044108
-0.26939431 0.44899049 1.3280001 4283780936
-0.26686478 0.44899049 1.3280001 4283780684
-0.26433524 0.44899049 1.3280001 4283780684
-0.26062286 0.44696191 1.322 4283715409
-0.25810477 0.44696191 1.322 4283715409
-0.25558665 0.44696191 1.322 4283978067
-0.2530686 0.44696191 1.322 4283846481
-0.25055048 0.44696191 1.322 4284240208
-0.24803238 0.44696191 1.322 4284371794
-0.24551429 0.44696191 1.322 4284372535
