# .PCD v0.7 - Point Cloud Data file format
VERSION 0.7
FIELDS x y z rgba
SIZE 4 4 4 4
TYPE F F F U
COUNT 1 1 1 1
WIDTH 1137
HEIGHT 1
VIEWPOINT 0 0 0 1 0 0 0
POINTS 1137
DATA ascii
0.32644671 0.55759525 2.1290002 4284374611
0.33050194 0.55759525 2.1290002 4278979585
0.33455718 0.55759525 2.1290002 4278193152
0.33861241 0.55759525 2.1290002 4282535489
0.34057528 0.55419052 2.1160002 4286083725
0.34248862 0.55078578 2.1030002 4290755028
0.34435242 0.54738098 2.0900002 4291148966
0.34633335 0.54423809 2.0780001 4290556829
0.35029143 0.54423809 2.0780001 4290228130
0.35203335 0.54083335 2.0650001 4290754474
0.35596669 0.54083335 2.0650001 4291676096
0.35780859 0.53769052 2.0530002 4293320921
0.3617191 0.53769052 2.0530002 4293848296
0.36562955 0.53769052 2.0530002 4294572019
0.36720002 0.53428578 2.0400002 4294901502
0.37108576 0.53428578 2.0400002 4294769916
0.37497145 0.53428578 2.0400002 4294769916
0.3788572 0.53428578 2.0400002 4294901502
0.38274288 0.53428578 2.0400002 4294901502
0.38662863 0.53428578 2.0400002 4293388263
0.39051431 0.53428578 2.0400002 4293122765
0.39440003 0.53428578 2.0400002 4293583316
0.39828575 0.53428578 2.0400002 4293583314
0.40473431 0.53769052 2.0530002 4293320142
0.40864483 0.53769052 2.0530002 4293254869
0.41255528 0.53769052 2.0530002 4293583834
0.41646573 0.53769052 2.0530002 4293584093
0.42283332 0.54083335 2.0650001 4294966774
0.42676666 0.54083335 2.0650001 4294901502
0.4307 0.54083335 2.0650001 4294901502
0.43463334 0.54083335 2.0650001 4294901502
0.43856668 0.54083335 2.0650001 4294901502
0.4425 0.54083335 2.0650001 4294901502
0.44643334 0.54083335 2.0650001 4294901502
0.45320192 0.54423809 2.0780001 4294901502
0.45430002 0.54083335 2.0650001 4294901502
0.45823336 0.54083335 2.0650001 4294901502
0.46507621 0.54423809 2.0780001 4294901502
0.46903431 0.54423809 2.0780001 4294769385
0.47572383 0.54738098 2.0900002 4291677114
0.4797048 0.54738098 2.0900002 4291939252
0.48669434 0.55078578 2.1030002 4292662975
0.49070004 0.55078578 2.1030002 4292728523
0.49776384 0.55419052 2.1160002 4292596937
0.50179434 0.55419052 2.1160002 4291808200
0.5058248 0.55419052 2.1160002 4292071372
0.51298761 0.55759525 2.1290002 4291479496
0.51704288 0.55759525 2.1290002 4286347642
-0.56066573 0.34743717 1.317 4281605901
-0.55603814 0.34611809 1.312 4281145350
-0.55353904 0.34611809 1.312 4280358169
-0.54894 0.34479904 1.307 4279568653
-0.54435998 0.34348002 1.302 4279108613
-0.53979903 0.34216097 1.2970001 4279108613
-0.53525716 0.34084189 1.2920001 4279239681
-0.5327962 0.34084189 1.2920001 4279371267
-0.52869338 0.33978668 1.2880001 4279371785
-0.52624005 0.33978668 1.2880001 4279503371
-0.52378672 0.33978668 1.2880001 4279241739
-0.51930952 0.33846763 1.2830001 4279044360
-0.51686573 0.33846763 1.2830001 4279043856
-0.51442194 0.33846763 1.2830001 4278649098
-0.51197809 0.33846763 1.2830001 4278583809
-0.50754857 0.33714861 1.2780001 4278583809
-0.50511432 0.33714861 1.2780001 4278518786
-0.50268 0.33714861 1.2780001 4278387200
-0.49828857 0.33582953 1.273 4278518786
-0.4958638 0.33582953 1.273 4278387200
-0.49343908 0.33582953 1.273 4278518786
-0.49101427 0.33582953 1.273 4278518786
-0.4885895 0.33582953 1.273 4278847490
-0.48616475 0.33582953 1.273 4279242248
-0.48184001 0.33451048 1.268 4279700743
-0.47942474 0.33451048 1.268 4279766536
-0.47700953 0.33451048 1.268 4279766030
-0.4745943 0.33451048 1.268 4279766030
-0.47217903 0.33451048 1.268 4279373575
-0.46976382 0.33451048 1.268 4279439368
-0.46734858 0.33451048 1.268 4279570704
-0.46493334 0.33451048 1.268 4279439118
-0.4625181 0.33451048 1.268 4279373071
-0.46010286 0.33451048 1.268 4279373071
-0.45624384 0.33345526 1.2640001 4279373071
-0.4538362 0.33345526 1.2640001 4279373071
-0.45285714 0.33451048 1.268 4279373575
-0.4504419 0.33451048 1.268 4279439368
-0.44802666 0.33451048 1.268 4279636243
-0.44561142 0.33451048 1.268 4279702036
-0.44319618 0.33451048 1.268 4279702540
-0.44078097 0.33451048 1.268 4279702540
-0.4383657 0.33451048 1.268 4279702540
-0.43595049 0.33451048 1.268 4279702540
-0.43353525 0.33451048 1.268 4279702540
-0.43281999 0.33582953 1.273 4279702540
-0.43039525 0.33582953 1.273 4279768333
-0.42797047 0.33582953 1.273 4279899919
-0.42554572 0.33582953 1.273 4279899919
-0.42312095 0.33582953 1.273 4279965712
-0.42069617 0.33582953 1.273 4280292376
-0.41991431 0.33714861 1.2780001 4280358169
-0.41748002 0.33714861 1.2780001 4280358169
-0.41504574 0.33714861 1.2780001 4280358169
-0.41261145 0.33714861 1.2780001 4280489755
-0.41017717 0.33714861 1.2780001 4280555548
-0.40933812 0.33846763 1.2830001 4280621845
-0.40848002 0.33978668 1.2880001 4280753431
-0.40602669 0.33978668 1.2880001 4280753679
-0.40357336 0.33978668 1.2880001 4280819472
-0.40112001 0.33978668 1.2880001 4280819481
-0.39990479 0.34084189 1.2920001 4280885274
-0.3974438 0.34084189 1.2920001 4281016860
-0.39498287 0.34084189 1.2920001 4281214239
-0.39404097 0.34216097 1.2970001 4281214239
-0.39157048 0.34216097 1.2970001 4281148446
-0.38910002 0.34216097 1.2970001 4281214489
-0.38662955 0.34216097 1.2970001 4281214489
-0.38415906 0.34216097 1.2970001 4281280282
-0.38316002 0.34348002 1.302 4281214489
-0.38068002 0.34348002 1.302 4281542684
-0.37820002 0.34348002 1.302 4281608477
-0.37716287 0.34479904 1.307 4281674279
-0.37467334 0.34479904 1.307 4281740072
-0.37360764 0.34611809 1.312 4281740065
-0.37110856 0.34611809 1.312 4281740065
-0.36860952 0.34611809 1.312 4281740313
-0.36750573 0.34743717 1.317 4281806106
-0.36499715 0.34743717 1.317 4281806106
-0.36248857 0.34743717 1.317 4282200864
-0.35997999 0.34743717 1.317 4282266409
-0.35747144 0.34743717 1.317 4282529581
-0.35496286 0.34743717 1.317 4282922538
-0.35379237 0.34875619 1.322 4282922538
-0.35286859 0.35033906 1.3280001 4283185442
-0.35165811 0.35165811 1.3330001 4283251235
-0.34911907 0.35165811 1.3330001 4283185453
-0.34788001 0.35297716 1.3380001 4283119660
-0.34533146 0.35297716 1.3380001 4283317541
-0.34406382 0.35429621 1.3430001 4283778092
-0.34150574 0.35429621 1.3430001 4283516206
-0.33894762 0.35429621 1.3430001 4283516206
-0.33789238 0.35587907 1.3490001 4283975476
-0.33656573 0.35719812 1.3540001 4284107062
-0.3339867 0.35719812 1.3540001 4284305455
-0.33263147 0.35851717 1.3590001 4284634420
-0.33149999 0.3601 1.365 4284372028
-0.3301048 0.36141905 1.3700001 4284240442
-0.32749525 0.36141905 1.3700001 4285027646
-0.32630858 0.36300191 1.376 4285882955
-0.32368761 0.36300191 1.376 4286014529
-0.32223332 0.36432096 1.381 4285948736
-0.32099143 0.36590385 1.3870001 4285817675
-0.31834954 0.36590385 1.3870001 4286146640
-0.31570762 0.36590385 1.3870001 4286606409
-0.31419429 0.36722288 1.3920001 4288251234
-0.31422856 0.3703886 1.404 4288579696
-0.31288573 0.37197146 1.4100001 4288448110
-0.31130001 0.37329048 1.4150001 4288319093
-0.31122193 0.3764562 1.427 4288384886
-0.30850384 0.3764562 1.427 4286018166
-0.32914287 0.40521145 1.536 4281939000
-0.32621714 0.40521145 1.536 4282923284
-0.32329142 0.40521145 1.536 4282857491
-0.32182574 0.40705812 1.5430001 4282988051
-0.3188867 0.40705812 1.5430001 4283053844
-0.31594765 0.40705812 1.5430001 4283316258
-0.3144286 0.40890476 1.5500001 4284039981
-0.3114762 0.40890476 1.5500001 4283778580
-0.30991712 0.41075143 1.557 4283844373
-0.30695143 0.41075143 1.557 4283975448
-0.30535239 0.4125981 1.5640001 4284107034
-0.30237335 0.4125981 1.5640001 4283976733
-0.29939431 0.4125981 1.5640001 4284108319
-0.29793143 0.41470855 1.572 4284108069
-0.29493713 0.41470855 1.572 4284239655
-0.29194286 0.41470855 1.572 4284239912
-0.28894857 0.41470855 1.572 4284305705
-0.28722763 0.41655526 1.5790001 4284305455
-0.28548002 0.41840193 1.5860001 4284305455
-0.28245905 0.41840193 1.5860001 4284174639
-0.27943811 0.41840193 1.5860001 4284108846
-0.27781144 0.42051241 1.5940001 4284043051
-0.27477524 0.42051241 1.5940001 4284043051
-0.27173907 0.42051241 1.5940001 4284173867
-0.26988286 0.42235905 1.6010001 4283779109
-0.26683334 0.42235905 1.6010001 4283777310
-0.26378384 0.42235905 1.6010001 4283777310
-0.26203716 0.42446953 1.6090001 4284107797
-0.25897241 0.42446953 1.6090001 4284370969
-0.25702095 0.4263162 1.6160001 4284239662
-0.25394288 0.4263162 1.6160001 4284042283
-0.25086477 0.4263162 1.6160001 4284108069
-0.24778666 0.4263162 1.6160001 4284173862
-0.24470857 0.4263162 1.6160001 4284370728
-0.24282669 0.42842668 1.6240001 4284568107
-0.23973335 0.42842668 1.6240001 4284436271
-0.23664001 0.42842668 1.6240001 4284436271
-0.23469715 0.43053716 1.6320001 4284108602
-0.23258191 0.43238384 1.6390001 4283582258
-0.22946002 0.43238384 1.6390001 4283712808
-0.22744288 0.43449432 1.6470001 4283712808
-0.22430572 0.43449432 1.6470001 4283712808
-0.22224286 0.4366048 1.6550001 4282857499
-0.21909049 0.4366048 1.6550001 4282987015
-0.21593811 0.4366048 1.6550001 4282987015
-0.2138143 0.43871525 1.6630001 4282724620
-0.21064667 0.43871525 1.6630001 4283316757
0.095400006 0.58723998 2.2260001 4288312576
0.099013336 0.5835467 2.2120001 4294966392
0.10322668 0.5835467 2.2120001 4294900991
0.10744 0.5835467 2.2120001 4290953411
0.11165334 0.5835467 2.2120001 4290951346
0.11513334 0.57985342 2.1980002 4291543483
0.11932001 0.57985342 2.1980002 4291411384
0.12350667 0.57985342 2.1980002 4291674556
0.12769336 0.57985342 2.1980002 4291938237
0.13103999 0.57616001 2.184 4292398788
0.13520001 0.57616001 2.184 4292399042
0.13936 0.57616001 2.184 4292530628
0.14352 0.57616001 2.184 4292596167
0.14768 0.57616001 2.184 4292727753
0.15184 0.57616001 2.184 4292662982
0.156 0.57616001 2.184 4292465603
0.16015999 0.57616001 2.184 4292530619
0.16431999 0.57616001 2.184 4292662205
0.16848001 0.57616001 2.184 4292662223
0.17264 0.57616001 2.184 4292464844
0.17793335 0.57985342 2.1980002 4291215777
0.18328001 0.5835467 2.2120001 4288584057
0.18749334 0.5835467 2.2120001 4288846981
0.19170667 0.5835467 2.2120001 4287267949
0.19592002 0.5835467 2.2120001 4287333162
0.20013334 0.5835467 2.2120001 4289372745
0.20434667 0.5835467 2.2120001 4290029972
0.20724002 0.57985342 2.1980002 4291477418
0.21008 0.57616001 2.184 4291742925
0.21286668 0.57246667 2.1700001 4288913826
0.21700001 0.57246667 2.1700001 4288714909
0.22113334 0.57246667 2.1700001 4288320151
0.22381334 0.56877339 2.1560001 4287271331
0.22792001 0.56877339 2.1560001 4287271331
0.23062763 0.5653438 2.1430001 4287336606
0.23470953 0.5653438 2.1430001 4287270813
0.23879144 0.5653438 2.1430001 4287467170
0.24434669 0.56877339 2.1560001 4287796135
0.24845333 0.56877339 2.1560001 4288058537
0.25256002 0.56877339 2.1560001 4287861158
0.25511909 0.5653438 2.1430001 4288452257
0.25920096 0.5653438 2.1430001 4289504945
0.26328287 0.5653438 2.1430001 4289768113
0.26736477 0.5653438 2.1430001 4289636527
0.27144668 0.5653438 2.1430001 4289438898
0.27552858 0.5653438 2.1430001 4289570484
0.27961048 0.5653438 2.1430001 4289374129
0.28183907 0.56165051 2.1290002 4289505715
0.2858943 0.56165051 2.1290002 4289571767
0.28994954 0.56165051 2.1290002 4289571767
0.29400477 0.56165051 2.1290002 4289505456
0.29806 0.56165051 2.1290002 4289110698
0.30211526 0.56165051 2.1290002 4289308068
0.30617049 0.56165051 2.1290002 4291018686
0.30833143 0.55822098 2.1160002 4291215043
0.31236196 0.55822098 2.1160002 4289043874
0.31833622 0.56165051 2.1290002 4287465074
0.32239145 0.56165051 2.1290002 4286017628
0.32644671 0.56165051 2.1290002 4284570706
0.33050194 0.56165051 2.1290002 4278978304
0.33455718 0.56165051 2.1290002 4278192384
0.33861241 0.56165051 2.1290002 4283653202
0.34057528 0.55822098 2.1160002 4287659675
0.34248862 0.55479151 2.1030002 4290751946
0.34435242 0.55136198 2.0900002 4290556075
0.34633335 0.5481962 2.0780001 4289898145
0.34810001 0.54476666 2.0650001 4290030744
0.35203335 0.54476666 2.0650001 4290820260
0.35389814 0.541601 2.0530002 4291807171
0.35780859 0.541601 2.0530002 4293451996
0.3617191 0.541601 2.0530002 4293585124
0.36562955 0.541601 2.0530002 4294637812
0.36720002 0.53817147 2.0400002 4294901502
0.37108576 0.53817147 2.0400002 4294835709
0.37497145 0.53817147 2.0400002 4294835709
0.3788572 0.53817147 2.0400002 4294901502
0.38274288 0.53817147 2.0400002 4294901754
0.38662863 0.53817147 2.0400002 4293059550
0.39051431 0.53817147 2.0400002 4293123015
0.39440003 0.53817147 2.0400002 4293583566
0.39828575 0.53817147 2.0400002 4293517521
0.40217146 0.53817147 2.0400002 4293385935
0.40864483 0.541601 2.0530002 4293320403
0.41255528 0.541601 2.0530002 4293517782
0.41646573 0.541601 2.0530002 4293452509
0.42283332 0.54476666 2.0650001 4294966776
0.42676666 0.54476666 2.0650001 4294901502
0.4307 0.54476666 2.0650001 4294901502
0.43463334 0.54476666 2.0650001 4294901500
0.43856668 0.54476666 2.0650001 4294901500
0.4425 0.54476666 2.0650001 4294901500
0.44643334 0.54476666 2.0650001 4294901500
0.45036668 0.54476666 2.0650001 4294901502
0.45430002 0.54476666 2.0650001 4294901502
0.45823336 0.54476666 2.0650001 4294901500
0.46507621 0.5481962 2.0780001 4294901500
0.46903431 0.5481962 2.0780001 4292992724
0.47572383 0.55136198 2.0900002 4291742657
0.4797048 0.55136198 2.0900002 4292071097
0.48669434 0.55479151 2.1030002 4292597441
0.49070004 0.55479151 2.1030002 4292728266
0.49776384 0.55822098 2.1160002 4292728266
0.50179434 0.55822098 2.1160002 4292465355
0.5058248 0.55822098 2.1160002 4292925906
0.51298761 0.56165051 2.1290002 4293582310
0.5204429 0.5653438 2.1430001 4289371558
-0.55815715 0.34994572 1.317 4281806367
-0.55353904 0.34861714 1.312 4281544217
-0.54894 0.34728858 1.307 4280491529
-0.54435998 0.34596002 1.302 4280293423
-0.53979903 0.34463143 1.2970001 4279964458
-0.53525716 0.34330288 1.2920001 4280291622
-0.5327962 0.34330288 1.2920001 4280160036
-0.52869338 0.34224001 1.2880001 4279765782
-0.52624005 0.34224001 1.2880001 4279436817
-0.52378672 0.34224001 1.2880001 4279043856
-0.51930952 0.34091145 1.2830001 4279241235
-0.51686573 0.34091145 1.2830001 4279635489
-0.51442194 0.34091145 1.2830001 4279438110
-0.51197809 0.34091145 1.2830001 4279570200
-0.50754857 0.33958289 1.2780001 4279635993
-0.50511432 0.33958289 1.2780001 4279636243
-0.50268 0.33958289 1.2780001 4279570450
-0.49828857 0.33825427 1.273 4279570954
-0.4958638 0.33825427 1.273 4279373575
-0.49343908 0.33825427 1.273 4279373071
-0.49101427 0.33825427 1.273 4279307278
-0.4885895 0.33825427 1.273 4279307532
-0.48616475 0.33825427 1.273 4279373325
-0.48184001 0.33692572 1.268 4279307782
-0.47942474 0.33692572 1.268 4279373575
-0.47700953 0.33692572 1.268 4279373071
-0.4745943 0.33692572 1.268 4279373071
-0.47217903 0.33692572 1.268 4279439368
-0.46976382 0.33692572 1.268 4279373575
-0.46734858 0.33692572 1.268 4279438864
-0.46493334 0.33692572 1.268 4279438864
-0.4625181 0.33692572 1.268 4279439368
-0.46010286 0.33692572 1.268 4279439368
-0.45768762 0.33692572 1.268 4279438864
-0.45527238 0.33692572 1.268 4279373071
-0.45285714 0.33692572 1.268 4279439368
-0.4504419 0.33692572 1.268 4279439368
-0.44802666 0.33692572 1.268 4279636747
-0.44561142 0.33692572 1.268 4279636747
-0.44494382 0.33825427 1.273 4279702540
-0.44251904 0.33825427 1.273 4279702540
-0.44009429 0.33825427 1.273 4280031001
-0.43595049 0.33692572 1.268 4279899415
-0.43353525 0.33692572 1.268 4279834376
-0.43281999 0.33825427 1.273 4279768583
-0.43039525 0.33825427 1.273 4280095501
-0.42797047 0.33825427 1.273 4280161294
-0.42554572 0.33825427 1.273 4280292880
-0.42312095 0.33825427 1.273 4280292880
-0.42069617 0.33825427 1.273 4280292376
-0.41991431 0.33958289 1.2780001 4280358169
-0.41748002 0.33958289 1.2780001 4280423962
-0.41666958 0.34091145 1.2830001 4280489755
-0.41261145 0.33958289 1.2780001 4280489755
-0.41017717 0.33958289 1.2780001 4280555548
-0.40933812 0.34091145 1.2830001 4280753431
-0.40848002 0.34224001 1.2880001 4280753431
-0.40602669 0.34224001 1.2880001 4280492304
-0.40357336 0.34224001 1.2880001 4280623890
-0.40112001 0.34224001 1.2880001 4280755476
-0.39990479 0.34330288 1.2920001 4280755476
-0.3974438 0.34330288 1.2920001 4281082653
-0.39651144 0.34463143 1.2970001 4281214239
-0.39404097 0.34463143 1.2970001 4280952864
-0.39157048 0.34463143 1.2970001 4280952864
-0.38910002 0.34463143 1.2970001 4281280282
-0.38662955 0.34463143 1.2970001 4281280282
-0.38415906 0.34463143 1.2970001 4281346588
-0.38316002 0.34596002 1.302 4281346588
-0.38068002 0.34596002 1.302 4281412381
-0.37965238 0.34728858 1.307 4281412381
-0.37716287 0.34728858 1.307 4281805865
-0.37467334 0.34728858 1.307 4281608486
-0.3721838 0.34728858 1.307 4281542684
-0.37110856 0.34861714 1.312 4281542684
-0.36860952 0.34861714 1.312 4281542684
-0.36611047 0.34861714 1.312 4281740063
-0.36499715 0.34994572 1.317 4282135826
-0.36248857 0.34994572 1.317 4282135826
-0.35997999 0.34994572 1.317 4282658857
-0.35747144 0.34994572 1.317 4283053615
-0.35496286 0.34994572 1.317 4283186725
-0.35379237 0.35127428 1.322 4283055139
-0.35286859 0.35286859 1.3280001 4283120932
-0.35165811 0.35419714 1.3330001 4283120932
-0.34911907 0.35419714 1.3330001 4283120430
-0.34788001 0.3555257 1.3380001 4283120430
-0.34533146 0.3555257 1.3380001 4283252518
-0.34278288 0.3555257 1.3380001 4283384104
-0.34150574 0.35685429 1.3430001 4283515179
-0.33894762 0.35685429 1.3430001 4283646765
-0.33789238 0.35844859 1.3490001 4283712063
-0.33656573 0.35977715 1.3540001 4284041028
-0.33522001 0.36110571 1.3590001 4284503086
-0.33263147 0.36110571 1.3590001 4284503086
-0.33149999 0.36269999 1.365 4284633917
-0.3301048 0.3640286 1.3700001 4284633917
-0.32749525 0.3640286 1.3700001 4285028416
-0.32630858 0.36562288 1.376 4285883725
-0.32368761 0.36562288 1.376 4286146869
-0.32223332 0.36695144 1.381 4286081076
-0.32099143 0.36854574 1.3870001 4285949261
-0.31834954 0.36854574 1.3870001 4286278226
-0.31570762 0.36854574 1.3870001 4286541137
-0.31419429 0.3698743 1.3920001 4287396446
-0.31422856 0.37306285 1.404 4287396697
-0.31288573 0.37465715 1.4100001 4287199318
-0.31130001 0.37598574 1.4150001 4287924041
-0.30991337 0.37758005 1.4210001 4289239901
-0.30850384 0.37917429 1.427 4288255077
-0.33214289 0.41185716 1.5500001 4281675777
-0.32770383 0.40999717 1.5430001 4281345305
-0.32476479 0.40999717 1.5430001 4282463786
-0.32182574 0.40999717 1.5430001 4282987034
-0.3188867 0.40999717 1.5430001 4283052827
-0.31594765 0.40999717 1.5430001 4283316013
-0.3144286 0.41185716 1.5500001 4284105529
-0.3114762 0.41185716 1.5500001 4283976474
-0.30991712 0.41371715 1.557 4283844888
-0.30695143 0.41371715 1.557 4283975711
-0.30535239 0.41557717 1.5640001 4283975711
-0.30237335 0.41557717 1.5640001 4283976733
-0.29939431 0.41557717 1.5640001 4283976733
-0.29793143 0.41770285 1.572 4284108319
-0.29493713 0.41770285 1.572 4284108319
-0.29194286 0.41770285 1.572 4284173610
-0.28894857 0.41770285 1.572 4284305196
-0.28722763 0.41956291 1.5790001 4284305707
-0.28548002 0.42142287 1.5860001 4284239914
-0.28245905 0.42142287 1.5860001 4284173361
-0.28084764 0.42354858 1.5940001 4284173361
-0.27781144 0.42354858 1.5940001 4284043053
-0.27477524 0.42354858 1.5940001 4284043053
-0.27293238 0.42540857 1.6010001 4284239662
-0.26988286 0.42540857 1.6010001 4284371248
-0.26816666 0.42753428 1.6090001 4284305707
-0.26510194 0.42753428 1.6090001 4284305707
-0.26203716 0.42753428 1.6090001 4284305444
-0.25897241 0.42753428 1.6090001 4284371237
-0.25702095 0.4293943 1.6160001 4284305455
-0.25394288 0.4293943 1.6160001 4284108076
-0.25086477 0.4293943 1.6160001 4283977009
-0.24778666 0.4293943 1.6160001 4283977009
-0.24592 0.43152002 1.6240001 4284174119
-0.24282669 0.43152002 1.6240001 4284305705
-0.23973335 0.43152002 1.6240001 4284305455
-0.23780572 0.43364576 1.6320001 4284371248
-0.23469715 0.43364576 1.6320001 4284371274
-0.23158859 0.43364576 1.6320001 4284239688
-0.22946002 0.43550572 1.6390001 4284108846
-0.22744288 0.43763146 1.6470001 4283911467
-0.22430572 0.43763146 1.6470001 4283911717
-0.22116858 0.43763146 1.6470001 4283319580
-0.21909049 0.43975717 1.6550001 4283449626
-0.21593811 0.43975717 1.6550001 4283318040
-0.21278574 0.43975717 1.6550001 4283186195
-0.21064667 0.44188288 1.6630001 4282988816
0.095400006 0.59148002 2.2260001 4284293677
0.099013336 0.58776003 2.2120001 4294228420
0.10322668 0.58776003 2.2120001 4292725218
0.10744 0.58776003 2.2120001 4291277772
0.11165334 0.58776003 2.2120001 4291082680
0.11513334 0.58404005 2.1980002 4291674817
0.11932001 0.58404005 2.1980002 4291609022
0.12350667 0.58404005 2.1980002 4291674815
0.12769336 0.58404005 2.1980002 4292070064
0.13103999 0.58032 2.184 4292333236
0.13520001 0.58032 2.184 4292201652
0.13936 0.58032 2.184 4292070066
0.14352 0.58032 2.184 4292201920
0.14768 0.58032 2.184 4292333506
0.15184 0.58032 2.184 4292267967
0.156 0.58032 2.184 4292070588
0.16015999 0.58032 2.184 4292201904
0.16431999 0.58032 2.184 4292662455
0.16848001 0.58032 2.184 4292530115
0.17264 0.58032 2.184 4291345841
0.17793335 0.58404005 2.1980002 4290952327
0.18328001 0.58776003 2.2120001 4288715365
0.18749334 0.58776003 2.2120001 4288781708
0.19170667 0.58776003 2.2120001 4286413160
0.19592002 0.58776003 2.2120001 4286412110
0.20013334 0.58776003 2.2120001 4289043830
0.20305336 0.58404005 2.1980002 4289897877
0.20724002 0.58404005 2.1980002 4291279530
0.21008 0.58032 2.184 4292070345
0.21286668 0.57660002 2.1700001 4292596689
0.21700001 0.57660002 2.1700001 4292400596
0.22113334 0.57660002 2.1700001 4292466389
0.22381334 0.57288003 2.1560001 4292071640
0.22792001 0.57288003 2.1560001 4291479503
0.23202668 0.57288003 2.1560001 4290888363
0.23613335 0.57288003 2.1560001 4289769882
0.24024001 0.57288003 2.1560001 4289637562
0.24434669 0.57288003 2.1560001 4289637562
0.24845333 0.57288003 2.1560001 4289307582
0.25256002 0.57288003 2.1560001 4289110203
0.25511909 0.56942576 2.1430001 4289110205
0.25920096 0.56942576 2.1430001 4289504963
0.26328287 0.56942576 2.1430001 4289702835
0.26736477 0.56942576 2.1430001 4289702835
0.27144668 0.56942576 2.1430001 4289900223
0.27552858 0.56942576 2.1430001 4289900223
0.27778384 0.56570572 2.1290002 4289768376
0.28183907 0.56570572 2.1290002 4289899962
0.2858943 0.56570572 2.1290002 4290097861
0.28994954 0.56570572 2.1290002 4290032068
0.29400477 0.56570572 2.1290002 4289900210
0.29806 0.56570572 2.1290002 4289571245
0.30211526 0.56570572 2.1290002 4289767597
0.30430096 0.56225151 2.1160002 4291149250
0.30833143 0.56225151 2.1160002 4291346113
0.31236196 0.56225151 2.1160002 4289372323
0.31833622 0.56570572 2.1290002 4288517251
0.32239145 0.56570572 2.1290002 4287004012
0.32644671 0.56570572 2.1290002 4284506460
0.33267525 0.56942576 2.1430001 4278519297
0.33675718 0.56942576 2.1430001 4278192899
0.34083906 0.56942576 2.1430001 4285759094
0.33848286 0.55879718 2.1030002 4287529648
0.34037143 0.55534291 2.0900002 4289963989
0.34237525 0.5521543 2.0780001 4290029738
0.34416667 0.54869998 2.0650001 4289437601
0.34810001 0.54869998 2.0650001 4288979112
0.34998766 0.54551148 2.0530002 4290426558
0.35389814 0.54551148 2.0530002 4291347649
0.3555429 0.54205716 2.0400002 4293255646
0.35942858 0.54205716 2.0400002 4293584870
0.36331433 0.54205716 2.0400002 4294900730
0.36720002 0.54205716 2.0400002 4294901500
0.37108576 0.54205716 2.0400002 4294901500
0.37497145 0.54205716 2.0400002 4294901502
0.3788572 0.54205716 2.0400002 4294901502
0.38274288 0.54205716 2.0400002 4294703580
0.38662863 0.54205716 2.0400002 4292861376
0.39051431 0.54205716 2.0400002 4293254088
0.39440003 0.54205716 2.0400002 4293517260
0.39828575 0.54205716 2.0400002 4293320142
0.40217146 0.54205716 2.0400002 4293188556
0.40605718 0.54205716 2.0400002 4293188817
0.4099429 0.54205716 2.0400002 4293320403
0.41646573 0.54551148 2.0530002 4293320664
0.42283332 0.54869998 2.0650001 4293123285
0.42676666 0.54869998 2.0650001 4291676362
0.4307 0.54869998 2.0650001 4289307814
0.43463334 0.54869998 2.0650001 4289440387
0.43856668 0.54869998 2.0650001 4290032524
0.4425 0.54869998 2.0650001 4290688440
0.44643334 0.54869998 2.0650001 4293254367
0.45036668 0.54869998 2.0650001 4292728802
0.45430002 0.54869998 2.0650001 4291478735
0.45823336 0.54869998 2.0650001 4291938482
0.46507621 0.5521543 2.0780001 4292464826
0.4717429 0.55534291 2.0900002 4292464052
0.47572383 0.55534291 2.0900002 4292529845
0.4797048 0.55534291 2.0900002 4292530624
0.48669434 0.55879718 2.1030002 4292596417
0.49070004 0.55879718 2.1030002 4292596419
0.49776384 0.56225151 2.1160002 4292530626
0.50487715 0.56570572 2.1290002 4292399042
0.50893241 0.56570572 2.1290002 4292793800
0.51298761 0.56570572 2.1290002 4292990927
0.51704288 0.56570572 2.1290002 4289503898
-0.55815715 0.35245427 1.317 4281478197
-0.55353904 0.35111618 1.312 4281149743
-0.54894 0.34977809 1.307 4280097055
-0.54435998 0.34843999 1.302 4280752173
-0.53979903 0.3471019 1.2970001 4280423208
-0.53525716 0.3457638 1.2920001 4280096040
-0.5327962 0.3457638 1.2920001 4279832868
-0.52869338 0.34469336 1.2880001 4279767579
-0.52624005 0.34469336 1.2880001 4279635993
-0.52378672 0.34469336 1.2880001 4279570200
-0.52133334 0.34469336 1.2880001 4279570200
-0.51686573 0.34335527 1.2830001 4279569696
-0.51442194 0.34335527 1.2830001 4279635489
-0.51197809 0.34335527 1.2830001 4279635993
-0.5095343 0.34335527 1.2830001 4279635993
-0.50511432 0.34201717 1.2780001 4279636243
-0.50268 0.34201717 1.2780001 4279570450
-0.50024575 0.34201717 1.2780001 4279177736
-0.4958638 0.34067905 1.273 4279177736
-0.49343908 0.34067905 1.273 4279177736
-0.49101427 0.34067905 1.273 4279046150
-0.4885895 0.34067905 1.273 4279307782
-0.48425525 0.33934096 1.268 4279307782
-0.48184001 0.33934096 1.268 4279241739
-0.47942474 0.33934096 1.268 4279241739
-0.47700953 0.33934096 1.268 4279241739
-0.4745943 0.33934096 1.268 4279175946
-0.47217903 0.33934096 1.268 4278980357
-0.46976382 0.33934096 1.268 4278980357
-0.46734858 0.33934096 1.268 4279307532
-0.46493334 0.33934096 1.268 4279307532
-0.4625181 0.33934096 1.268 4279439368
-0.46010286 0.33934096 1.268 4279373575
-0.45768762 0.33934096 1.268 4279372821
-0.45527238 0.33934096 1.268 4279372821
-0.45464286 0.34067905 1.273 4279307532
-0.45221809 0.34067905 1.273 4279307532
-0.44979331 0.34067905 1.273 4279766536
-0.44736856 0.34067905 1.273 4279963915
-0.44494382 0.34067905 1.273 4279963915
-0.44078097 0.33934096 1.268 4280029708
-0.4383657 0.33934096 1.268 4280095501
-0.43595049 0.33934096 1.268 4280095501
-0.43353525 0.33934096 1.268 4280029958
-0.43281999 0.34067905 1.273 4279964165
-0.43039525 0.34067905 1.273 4280161294
-0.42797047 0.34067905 1.273 4280292880
-0.42554572 0.34067905 1.273 4280160790
-0.42312095 0.34067905 1.273 4280292376
-0.42234859 0.34201717 1.2780001 4280292880
-0.42155719 0.34335527 1.2830001 4280358673
-0.41911337 0.34335527 1.2830001 4280423962
-0.41666958 0.34335527 1.2830001 4280621341
-0.41422576 0.34335527 1.2830001 4280294173
-0.41178194 0.34335527 1.2830001 4280228380
-0.40933812 0.34335527 1.2830001 4280753679
-0.40848002 0.34469336 1.2880001 4280885265
-0.40602669 0.34469336 1.2880001 4280819472
-0.40357336 0.34469336 1.2880001 4281148437
-0.40112001 0.34469336 1.2880001 4280755476
-0.39990479 0.3457638 1.2920001 4280755476
-0.39898193 0.3471019 1.2970001 4281082653
-0.39651144 0.3471019 1.2970001 4281148446
-0.39404097 0.3471019 1.2970001 4281214239
-0.39157048 0.3471019 1.2970001 4281214239
-0.38910002 0.3471019 1.2970001 4281214489
-0.38812 0.34843999 1.302 4281280282
-0.38564003 0.34843999 1.302 4281280795
-0.38316002 0.34843999 1.302 4281280795
-0.38068002 0.34843999 1.302 4281280795
-0.37965238 0.34977809 1.307 4281346588
-0.37716287 0.34977809 1.307 4281477670
-0.37467334 0.34977809 1.307 4281477670
-0.3721838 0.34977809 1.307 4281477395
-0.37110856 0.35111618 1.312 4281543188
-0.36860952 0.35111618 1.312 4281674520
-0.36611047 0.35111618 1.312 4281740313
-0.36499715 0.35245427 1.317 4282003487
-0.36248857 0.35245427 1.317 4282135073
-0.35997999 0.35245427 1.317 4282790423
-0.35747144 0.35245427 1.317 4283250974
-0.35496286 0.35245427 1.317 4283119649
-0.35379237 0.35379237 1.322 4283251235
-0.35286859 0.35539812 1.3280001 4283120419
-0.35165811 0.35673621 1.3330001 4283120419
-0.34911907 0.35673621 1.3330001 4283120419
-0.34788001 0.35807431 1.3380001 4283120419
-0.34533146 0.35807431 1.3380001 4283054880
-0.34278288 0.35807431 1.3380001 4282989087
-0.34150574 0.3594124 1.3430001 4283383334
-0.33894762 0.3594124 1.3430001 4283580713
-0.33789238 0.36101812 1.3490001 4283647022
-0.33656573 0.36235622 1.3540001 4283975987
-0.3339867 0.36235622 1.3540001 4284502837
-0.33263147 0.36369431 1.3590001 4284502837
-0.33004287 0.36369431 1.3590001 4284502585
-0.32890001 0.3653 1.365 4284634171
-0.32749525 0.36663812 1.3700001 4284830785
-0.32488576 0.36663812 1.3700001 4285686094
-0.32368761 0.36824381 1.376 4286015551
-0.32223332 0.36958191 1.381 4285949758
-0.32099143 0.37118763 1.3870001 4286146638
-0.31834954 0.37118763 1.3870001 4286475603
-0.31570762 0.37118763 1.3870001 4286344525
-0.31419429 0.37252572 1.3920001 4287002455
-0.31422856 0.37573716 1.404 4286806619
-0.31288573 0.37734288 1.4100001 4286609240
-0.31020001 0.37734288 1.4100001 4287266124
-0.30991337 0.38028669 1.4210001 4289174121
-0.30720669 0.38028669 1.4210001 4288451217
-0.30578572 0.38189238 1.427 4281740331
-0.32919049 0.41480953 1.5500001 4281669888
-0.3262381 0.41480953 1.5500001 4283051534
-0.32328573 0.41480953 1.5500001 4283053058
-0.32033333 0.41480953 1.5500001 4283184644
-0.31738096 0.41480953 1.5500001 4283777061
-0.3144286 0.41480953 1.5500001 4284040233
-0.3114762 0.41480953 1.5500001 4283975718
-0.30991712 0.41668284 1.557 4283975718
-0.30695143 0.41668284 1.557 4283910175
-0.30535239 0.41855621 1.5640001 4283910175
-0.30237335 0.41855621 1.5640001 4283910175
-0.29939431 0.41855621 1.5640001 4284041761
-0.29793143 0.42069712 1.572 4284042276
-0.29493713 0.42069712 1.572 4283976483
-0.29194286 0.42069712 1.572 4284108069
-0.29023525 0.4225705 1.5790001 4284239655
-0.28722763 0.4225705 1.5790001 4284109096
-0.28548002 0.42444381 1.5860001 4284109096
-0.28245905 0.42444381 1.5860001 4283977258
-0.28084764 0.42658478 1.5940001 4283977258
-0.27781144 0.42658478 1.5940001 4283977258
-0.27477524 0.42658478 1.5940001 4283977258
-0.27293238 0.42845809 1.6010001 4284239660
-0.26988286 0.42845809 1.6010001 4284239660
-0.26816666 0.43059906 1.6090001 4284305705
-0.26510194 0.43059906 1.6090001 4284305705
-0.26203716 0.43059906 1.6090001 4284371500
-0.25897241 0.43059906 1.6090001 4284437293
-0.25702095 0.43247238 1.6160001 4284305455
-0.25394288 0.43247238 1.6160001 4284305455
-0.25086477 0.43247238 1.6160001 4284043053
-0.24778666 0.43247238 1.6160001 4283911467
-0.24592 0.43461335 1.6240001 4284107817
-0.24282669 0.43461335 1.6240001 4284436782
-0.23973335 0.43461335 1.6240001 4284371248
-0.23780572 0.43675429 1.6320001 4284305455
-0.23469715 0.43675429 1.6320001 4284174395
-0.23158859 0.43675429 1.6320001 4284240188
-0.22946002 0.43862763 1.6390001 4284042802
-0.22744288 0.44076857 1.6470001 4284108595
-0.22430572 0.44076857 1.6470001 4284305972
-0.22116858 0.44076857 1.6470001 4283582249
-0.21909049 0.44290954 1.6550001 4283580701
-0.21593811 0.44290954 1.6550001 4283383322
-0.21278574 0.44290954 1.6550001 4283382300
-0.20963334 0.44290954 1.6550001 4283645472
-0.20747906 0.44505051 1.6630001 4281875214
0.095400006 0.59572005 2.2260001 4285027584
0.099639997 0.59572005 2.2260001 4290488394
0.10388 0.59572005 2.2260001 4291148210
0.10744 0.59197336 2.2120001 4291016624
0.11165334 0.59197336 2.2120001 4291411636
0.11586667 0.59197336 2.2120001 4291345843
0.11932001 0.58822674 2.1980002 4291345330
0.12350667 0.58822674 2.1980002 4291740088
0.12769336 0.58822674 2.1980002 4291872698
0.13103999 0.58447999 2.184 4291741112
0.13520001 0.58447999 2.184 4291543731
0.13936 0.58447999 2.184 4291609524
0.14352 0.58447999 2.184 4291741623
0.14768 0.58447999 2.184 4291939002
0.15184 0.58447999 2.184 4291873466
0.156 0.58447999 2.184 4291807673
0.16015999 0.58447999 2.184 4291806901
0.16431999 0.58447999 2.184 4292333245
0.16848001 0.58447999 2.184 4292267974
0.17264 0.58447999 2.184 4290688942
0.17793335 0.58822674 2.1980002 4289965193
0.18212001 0.58822674 2.1980002 4288978298
0.18749334 0.59197336 2.2120001 4288912520
0.19170667 0.59197336 2.2120001 4286215007
0.19592002 0.59197336 2.2120001 4286345752
0.20013334 0.59197336 2.2120001 4289438023
0.20305336 0.58822674 2.1980002 4289896839
0.20724002 0.58822674 2.1980002 4290949527
0.21008 0.58447999 2.184 4291937217
0.21424 0.58447999 2.184 4292989905
0.21700001 0.58073336 2.1700001 4293189337
0.22113334 0.58073336 2.1700001 4292662993
0.22381334 0.57698673 2.1560001 4292662743
0.22792001 0.57698673 2.1560001 4291807434
0.23062763 0.57350767 2.1430001 4291215811
0.23470953 0.57350767 2.1430001 4289768365
0.24024001 0.57698673 2.1560001 4289637047
0.24434669 0.57698673 2.1560001 4289505461
0.24845333 0.57698673 2.1560001 4289242293
0.25103715 0.57350767 2.1430001 4289373879
0.25511909 0.57350767 2.1430001 4289308086
0.25920096 0.57350767 2.1430001 4289439672
0.26328287 0.57350767 2.1430001 4289308593
0.26736477 0.57350767 2.1430001 4289571765
0.27144668 0.57350767 2.1430001 4289899710
0.27372861 0.56976098 2.1290002 4289899710
0.27778384 0.56976098 2.1290002 4289834169
0.28183907 0.56976098 2.1290002 4289965755
0.2858943 0.56976098 2.1290002 4290491847
0.28817907 0.56628197 2.1160002 4290228675
0.29220957 0.56628197 2.1160002 4289900219
0.29624003 0.56628197 2.1160002 4289571254
0.3002705 0.56628197 2.1160002 4289834160
0.30430096 0.56628197 2.1160002 4291018434
0.30833143 0.56628197 2.1160002 4291345852
0.31236196 0.56628197 2.1160002 4289306269
0.31639242 0.56628197 2.1160002 4289043338
0.32239145 0.56976098 2.1290002 4286937962
0.32644671 0.56976098 2.1290002 4285031003
0.33267525 0.57350767 2.1430001 4279043840
0.33455718 0.56976098 2.1290002 4278717952
0.33654478 0.56628197 2.1160002 4286613108
0.33848286 0.56280291 2.1030002 4288517796
0.34037143 0.55932385 2.0900002 4289702070
0.34237525 0.55611241 2.0780001 4289373616
0.34416667 0.55263335 2.0650001 4288649893
0.34607717 0.54942197 2.0530002 4288585113
0.34998766 0.54942197 2.0530002 4290624696
0.35165718 0.5459429 2.0400002 4291413458
0.3555429 0.5459429 2.0400002 4293321455
0.35942858 0.5459429 2.0400002 4293519077
0.36331433 0.5459429 2.0400002 4294374386
0.36720002 0.5459429 2.0400002 4294638330
0.37108576 0.5459429 2.0400002 4294901502
0.37497145 0.5459429 2.0400002 4294901502
0.3788572 0.5459429 2.0400002 4294440951
0.38274288 0.5459429 2.0400002 4293977806
0.38662863 0.5459429 2.0400002 4293319876
0.39051431 0.5459429 2.0400002 4293385163
0.39440003 0.5459429 2.0400002 4293450956
0.39828575 0.5459429 2.0400002 4293254090
0.40217146 0.5459429 2.0400002 4293254090
0.40605718 0.5459429 2.0400002 4293123276
0.4099429 0.5459429 2.0400002 4293320655
0.41646573 0.54942197 2.0530002 4293321175
0.42037624 0.54942197 2.0530002 4292794831
0.42676666 0.55263335 2.0650001 4291414203
0.42819721 0.54942197 2.0530002 4288453518
0.43210766 0.54942197 2.0530002 4286283612
0.43601814 0.54942197 2.0530002 4287007335
0.43992862 0.54942197 2.0530002 4288515410
0.44383907 0.54942197 2.0530002 4289173340
0.44774958 0.54942197 2.0530002 4291212190
0.45166004 0.54942197 2.0530002 4291804327
0.45557052 0.54942197 2.0530002 4291411368
0.4621667 0.55263335 2.0650001 4292398263
0.4717429 0.55932385 2.0900002 4292595899
0.47572383 0.55932385 2.0900002 4292595899
0.48268861 0.56280291 2.1030002 4292332988
0.48669434 0.56280291 2.1030002 4292793539
0.49070004 0.56280291 2.1030002 4292662212
0.49776384 0.56628197 2.1160002 4292530626
0.50487715 0.56976098 2.1290002 4292266943
0.50893241 0.56976098 2.1290002 4292859080
0.51298761 0.56976098 2.1290002 4292465614
0.51704288 0.56976098 2.1290002 4288781206
-0.55353904 0.35361525 1.312 4285030194
-0.54894 0.35226762 1.307 4280227328
-0.54435998 0.35091999 1.302 4280030247
-0.53979903 0.34957239 1.2970001 4280622384
-0.53525716 0.34822479 1.2920001 4280557095
-0.5327962 0.34822479 1.2920001 4280162337
-0.52869338 0.34714669 1.2880001 4280096544
-0.52624005 0.34714669 1.2880001 4280030751
-0.52378672 0.34714669 1.2880001 4279701786
-0.52133334 0.34714669 1.2880001 4279701786
-0.51888001 0.34714669 1.2880001 4279571483
-0.51442194 0.34579906 1.2830001 4279571483
-0.51197809 0.34579906 1.2830001 4279768083
-0.5095343 0.34579906 1.2830001 4279636497
-0.50709051 0.34579906 1.2830001 4279636243
-0.50268 0.34445146 1.2780001 4279636243
-0.50024575 0.34445146 1.2780001 4279636997
-0.4958638 0.3431038 1.273 4279439618
-0.49343908 0.3431038 1.273 4279307782
-0.49101427 0.3431038 1.273 4279241989
-0.4885895 0.3431038 1.273 4279308034
-0.48425525 0.34175619 1.268 4279373827
-0.48184001 0.34175619 1.268 4279438614
-0.47942474 0.34175619 1.268 4279372821
-0.47700953 0.34175619 1.268 4279373325
-0.4745943 0.34175619 1.268 4279241739
-0.47217903 0.34175619 1.268 4279242241
-0.46976382 0.34175619 1.268 4279242241
-0.46734858 0.34175619 1.268 4279307782
-0.46493334 0.34175619 1.268 4279373575
-0.46434188 0.3431038 1.273 4279308034
-0.46191713 0.3431038 1.273 4279308034
-0.45949239 0.3431038 1.273 4279242518
-0.45706761 0.3431038 1.273 4279176725
-0.45464286 0.3431038 1.273 4279307782
-0.45221809 0.3431038 1.273 4279307782
-0.44979331 0.3431038 1.273 4279439368
-0.44736856 0.3431038 1.273 4279570954
-0.44494382 0.3431038 1.273 4279636997
-0.44078097 0.34175619 1.268 4279702790
-0.4383657 0.34175619 1.268 4279768333
-0.43766952 0.3431038 1.273 4279768333
-0.43524474 0.3431038 1.273 4279636997
-0.43281999 0.3431038 1.273 4279702790
-0.43039525 0.3431038 1.273 4279834126
-0.42797047 0.3431038 1.273 4279899919
-0.42554572 0.3431038 1.273 4279964958
-0.42312095 0.3431038 1.273 4279899165
-0.42234859 0.34445146 1.2780001 4280292880
-0.42155719 0.34579906 1.2830001 4280292880
-0.41911337 0.34579906 1.2830001 4280358673
-0.41666958 0.34579906 1.2830001 4280490259
-0.41422576 0.34579906 1.2830001 4280491552
-0.41178194 0.34579906 1.2830001 4280294173
-0.40933812 0.34579906 1.2830001 4280819472
-0.40848002 0.34714669 1.2880001 4280819472
-0.40602669 0.34714669 1.2880001 4280819472
-0.40357336 0.34714669 1.2880001 4280885265
-0.40112001 0.34714669 1.2880001 4280885778
-0.39866671 0.34714669 1.2880001 4280885778
-0.3974438 0.34822479 1.2920001 4281082903
-0.39651144 0.34957239 1.2970001 4281082903
-0.39404097 0.34957239 1.2970001 4281148696
-0.39157048 0.34957239 1.2970001 4281214489
-0.3906 0.35091999 1.302 4281214489
-0.38961047 0.35226762 1.307 4281214489
-0.38712096 0.35226762 1.307 4281280282
-0.38463143 0.35226762 1.307 4281280282
-0.38214192 0.35226762 1.307 4281280282
-0.38110477 0.35361525 1.312 4281148696
-0.37860572 0.35361525 1.312 4281412381
-0.37610668 0.35361525 1.312 4281412381
-0.37360764 0.35361525 1.312 4281411098
-0.37110856 0.35361525 1.312 4281542684
-0.36860952 0.35361525 1.312 4281674520
-0.36611047 0.35361525 1.312 4281806106
-0.36499715 0.35496286 1.317 4282004240
-0.36248857 0.35496286 1.317 4282004240
-0.35997999 0.35496286 1.317 4282659607
-0.35747144 0.35496286 1.317 4282922779
-0.35496286 0.35496286 1.317 4283054359
-0.35379237 0.35631049 1.322 4283120152
-0.35286859 0.35792762 1.3280001 4282989087
-0.35165811 0.35927525 1.3330001 4282989087
-0.34911907 0.35927525 1.3330001 4282857491
-0.34788001 0.36062288 1.3380001 4282923284
-0.34533146 0.36062288 1.3380001 4283054880
-0.34278288 0.36062288 1.3380001 4282989087
-0.34150574 0.36197048 1.3430001 4283252016
-0.33894762 0.36197048 1.3430001 4283580981
-0.33789238 0.36358765 1.3490001 4283778106
-0.33656573 0.36493528 1.3540001 4283975485
-0.3339867 0.36493528 1.3540001 4284371248
-0.33263147 0.36628288 1.3590001 4284437041
-0.33004287 0.36628288 1.3590001 4284567865
-0.32890001 0.36790001 1.365 4284699451
-0.3263 0.36790001 1.365 4284962371
-0.32488576 0.36924765 1.3700001 4285686094
-0.32368761 0.37086478 1.376 4285950260
-0.32106668 0.37086478 1.376 4285950260
-0.31960285 0.37221238 1.381 4286081353
-0.3169724 0.37221238 1.381 4286476111
-0.31570762 0.37382954 1.3870001 4286476365
-0.31419429 0.37517717 1.3920001 4286476365
-0.31288573 0.37679431 1.3980001 4286410071
-0.31155431 0.37841141 1.404 4286015313
-0.31020001 0.38002861 1.4100001 4286475353
-0.30991337 0.38299337 1.4210001 4288712315
-0.30720669 0.38299337 1.4210001 4288385910
-0.30578572 0.38461047 1.427 4285162053
-0.33067715 0.41964859 1.557 4282201895
-0.3262381 0.41776192 1.5500001 4282004516
-0.32328573 0.41776192 1.5500001 4282856206
-0.32033333 0.41776192 1.5500001 4283843101
-0.31738096 0.41776192 1.5500001 4283712287
-0.3144286 0.41776192 1.5500001 4283778080
-0.31288287 0.41964859 1.557 4283975469
-0.30991712 0.41964859 1.557 4283909676
-0.30695143 0.41964859 1.557 4283975198
-0.30535239 0.42153525 1.5640001 4283909405
-0.30237335 0.42153525 1.5640001 4283713050
-0.29939431 0.42153525 1.5640001 4283647257
-0.29793143 0.42369142 1.572 4283712038
-0.29493713 0.42369142 1.572 4284041003
-0.29324287 0.42557812 1.5790001 4284108069
-0.29023525 0.42557812 1.5790001 4284108069
-0.28722763 0.42557812 1.5790001 4284239651
-0.28548002 0.42746478 1.5860001 4284108065
-0.28245905 0.42746478 1.5860001 4283911717
-0.28084764 0.42962098 1.5940001 4283911717
-0.27781144 0.42962098 1.5940001 4283845672
-0.27477524 0.42962098 1.5940001 4283779879
-0.27293238 0.43150762 1.6010001 4284041775
-0.26988286 0.43150762 1.6010001 4284173361
-0.26816666 0.43366382 1.6090001 4284239662
-0.26510194 0.43366382 1.6090001 4284239662
-0.26203716 0.43366382 1.6090001 4284305455
-0.25897241 0.43366382 1.6090001 4284305455
-0.25702095 0.43555048 1.6160001 4284174639
-0.25394288 0.43555048 1.6160001 4284108846
-0.25086477 0.43555048 1.6160001 4283977009
-0.24901335 0.43770668 1.6240001 4283516458
-0.24592 0.43770668 1.6240001 4283975469
-0.24282669 0.43770668 1.6240001 4284436020
-0.23973335 0.43770668 1.6240001 4284568109
-0.23780572 0.43986288 1.6320001 4284370730
-0.23469715 0.43986288 1.6320001 4284305455
-0.23158859 0.43986288 1.6320001 4284305455
-0.22946002 0.44174951 1.6390001 4284108846
-0.22744288 0.44390571 1.6470001 4284043053
-0.22430572 0.44390571 1.6470001 4284240680
-0.22116858 0.44390571 1.6470001 4284109094
-0.21909049 0.44606191 1.6550001 4283911717
-0.21593811 0.44606191 1.6550001 4283714338
-0.21278574 0.44606191 1.6550001 4283779865
-0.20963334 0.44606191 1.6550001 4283516693
-0.20747906 0.44821811 1.6630001 4282793754
-0.2052943 0.45037431 1.6710001 4281806859
-0.20211144 0.45037431 1.6710001 4279506733
-0.19892858 0.45037431 1.6710001 4278322459
-0.19574574 0.45037431 1.6710001 4278322970
0.096042864 0.60400289 2.2410002 4285226557
0.099639997 0.59996003 2.2260001 4285358143
0.10388 0.59996003 2.2260001 4288516698
0.10744 0.5961867 2.2120001 4291148418
0.11165334 0.5961867 2.2120001 4290688422
0.11586667 0.5961867 2.2120001 4290227871
0.11932001 0.59241337 2.1980002 4290424489
0.12350667 0.59241337 2.1980002 4291279798
0.12688001 0.58864003 2.184 4291543481
0.13103999 0.58864003 2.184 4291543481
0.13520001 0.58864003 2.184 4291412152
0.13936 0.58864003 2.184 4291280566
0.14352 0.58864003 2.184 4291609517
0.14768 0.58864003 2.184 4291806896
0.15184 0.58864003 2.184 4291741103
0.156 0.58864003 2.184 4291609517
0.16015999 0.58864003 2.184 4291477690
0.16431999 0.58864003 2.184 4291543483
0.16848001 0.58864003 2.184 4291478199
0.17264 0.58864003 2.184 4290162339
0.1768 0.58864003 2.184 4290096770
0.18212001 0.59241337 2.1980002 4289241461
0.18749334 0.5961867 2.2120001 4288650094
0.19170667 0.5961867 2.2120001 4285163065
0.19592002 0.5961867 2.2120001 4286082634
0.20013334 0.5961867 2.2120001 4288385389
0.20305336 0.59241337 2.1980002 4289041781
0.20724002 0.59241337 2.1980002 4290489227
0.21008 0.58864003 2.184 4291871648
0.21424 0.58864003 2.184 4292595371
0.21700001 0.5848667 2.1700001 4292070334
0.22113334 0.5848667 2.1700001 4291609783
0.22381334 0.58109331 2.1560001 4291544251
0.22792001 0.58109331 2.1560001 4290820528
0.23062763 0.57758957 2.1430001 4290492074
0.23470953 0.57758957 2.1430001 4289242007
0.23879144 0.57758957 2.1430001 4288583852
0.24287334 0.57758957 2.1430001 4288518059
0.24845333 0.58109331 2.1560001 4288715177
0.25103715 0.57758957 2.1430001 4289373107
0.25511909 0.57758957 2.1430001 4289307823
0.25920096 0.57758957 2.1430001 4289636788
0.26328287 0.57758957 2.1430001 4289571249
0.26736477 0.57758957 2.1430001 4289834421
0.27144668 0.57758957 2.1430001 4289899703
0.27372861 0.57381624 2.1290002 4289570738
0.27778384 0.57381624 2.1290002 4289834167
0.28183907 0.57381624 2.1290002 4289834167
0.2858943 0.57381624 2.1290002 4289900219
0.28817907 0.57031244 2.1160002 4289900219
0.29220957 0.57031244 2.1160002 4289899962
0.29624003 0.57031244 2.1160002 4289702583
0.3002705 0.57031244 2.1160002 4290096305
0.30430096 0.57031244 2.1160002 4291280579
0.30833143 0.57031244 2.1160002 4291213996
0.31236196 0.57031244 2.1160002 4288911241
0.31639242 0.57031244 2.1160002 4288780901
0.32042289 0.57031244 2.1160002 4286741318
0.32644671 0.57381624 2.1290002 4284703578
0.33267525 0.57758957 2.1430001 4279505931
0.33455718 0.57381624 2.1290002 4279510830
0.33654478 0.57031244 2.1160002 4286287509
0.33848286 0.56680858 2.1030002 4288517530
0.34037143 0.56330478 2.0900002 4288846495
0.34237525 0.56007051 2.0780001 4289109419
0.34416667 0.55656666 2.0650001 4288648868
0.34607717 0.55333245 2.0530002 4287994009
0.34998766 0.55333245 2.0530002 4290625729
0.35165718 0.54982865 2.0400002 4291479273
0.3555429 0.54982865 2.0400002 4293321471
0.35942858 0.54982865 2.0400002 4293124832
0.36331433 0.54982865 2.0400002 4293124832
0.36720002 0.54982865 2.0400002 4294637812
0.37108576 0.54982865 2.0400002 4294967034
0.37276572 0.54659426 2.0280001 4294901502
0.37662858 0.54659426 2.0280001 4293519849
0.38049144 0.54659426 2.0280001 4293254081
0.38435429 0.54659426 2.0280001 4293122495
0.39051431 0.54982865 2.0400002 4293188556
0.39440003 0.54982865 2.0400002 4293320142
0.39828575 0.54982865 2.0400002 4293254090
0.40217146 0.54982865 2.0400002 4293254090
0.40605718 0.54982865 2.0400002 4293123276
0.4099429 0.54982865 2.0400002 4293254862
0.41646573 0.55333245 2.0530002 4293189326
0.42037624 0.55333245 2.0530002 4292794568
0.42676666 0.55656666 2.0650001 4291940036
0.42819721 0.55333245 2.0530002 4289703074
0.43210766 0.55333245 2.0530002 4287530921
0.43601814 0.55333245 2.0530002 4286412440
0.43992862 0.55333245 2.0530002 4286148694
0.44383907 0.55333245 2.0530002 4284767041
0.44774958 0.55333245 2.0530002 4288584024
0.45166004 0.55333245 2.0530002 4292663190
0.45557052 0.55333245 2.0530002 4292728005
0.4621667 0.55656666 2.0650001 4292530626
0.46903431 0.56007051 2.0780001 4292596160
0.47572383 0.56330478 2.0900002 4292530367
0.48268861 0.56680858 2.1030002 4292398531
0.48669434 0.56680858 2.1030002 4292924875
0.49373338 0.57031244 2.1160002 4292727494
0.50082195 0.57381624 2.1290002 4292661701
0.50487715 0.57381624 2.1290002 4292596419
0.50893241 0.57381624 2.1290002 4293385935
0.51636094 0.57758957 2.1430001 4292466130
0.5204429 0.57758957 2.1430001 4289373859
0.52452481 0.57758957 2.1430001 4287337832
-0.55353904 0.3561143 1.312 4285946786
-0.54894 0.35475716 1.307 4280157002
-0.54435998 0.35339999 1.302 4279372821
-0.53979903 0.35204288 1.2970001 4280622888
-0.5373286 0.35204288 1.2970001 4280556845
-0.5327962 0.35068572 1.2920001 4280162087
-0.52869338 0.34960002 1.2880001 4280162337
-0.52624005 0.34960002 1.2880001 4279833372
-0.52378672 0.34960002 1.2880001 4279833372
-0.52133334 0.34960002 1.2880001 4279767579
-0.51888001 0.34960002 1.2880001 4279833622
-0.51442194 0.34824288 1.2830001 4279702036
-0.51197809 0.34824288 1.2830001 4279636243
-0.51152009 0.34960002 1.2880001 4279636243
-0.50709051 0.34824288 1.2830001 4279636243
-0.50268 0.34688574 1.2780001 4279438864
-0.50024575 0.34688574 1.2780001 4279439368
-0.49781144 0.34688574 1.2780001 4279373575
-0.49343908 0.34552857 1.273 4279241739
-0.49101427 0.34552857 1.273 4279241739
-0.4885895 0.34552857 1.273 4279241989
-0.48425525 0.34417143 1.268 4279373575
-0.48184001 0.34417143 1.268 4279372821
-0.47942474 0.34417143 1.268 4279372821
-0.47700953 0.34417143 1.268 4279111182
-0.4745943 0.34417143 1.268 4279045389
-0.47217903 0.34417143 1.268 4278980357
-0.46976382 0.34417143 1.268 4278980357
-0.46734858 0.34417143 1.268 4279241739
-0.46676669 0.34552857 1.273 4279373325
