# .PCD v0.7 - Point Cloud Data file format
VERSION 0.7
FIELDS x y z rgba
SIZE 4 4 4 4
TYPE F F F U
COUNT 1 1 1 1
WIDTH 1114
HEIGHT 1
VIEWPOINT 0 0 0 1 0 0 0
POINTS 1114
DATA ascii
0.47373429 -0.40631145 1.863 4278190082
0.47728285 -0.40631145 1.863 4278190082
0.4782505 -0.40413049 1.853 4278190082
0.48178002 -0.40413049 1.853 4278190082
0.48530954 -0.40413049 1.853 4278190082
0.48883906 -0.40413049 1.853 4278190082
0.49236858 -0.40413049 1.853 4278321668
0.49322191 -0.40194955 1.8430001 4278452757
0.49673241 -0.40194955 1.8430001 4278650136
0.50024283 -0.40194955 1.8430001 4278650388
0.50375336 -0.40194955 1.8430001 4278387216
0.50726384 -0.40194955 1.8430001 4279632134
0.51077425 -0.40194955 1.8430001 4280026892
0.51707524 -0.40413049 1.853 4280484608
0.53472286 -0.40413049 1.853 4279438866
0.53825241 -0.40413049 1.853 4279042827
0.53885812 -0.40194955 1.8430001 4278845448
0.54236859 -0.40194955 1.8430001 4278846766
0.54587907 -0.40194955 1.8430001 4279044145
0.54342759 -0.39758763 1.8230001 4279241235
0.54689997 -0.39758763 1.8230001 4279043856
0.55037242 -0.39758763 1.8230001 4278846484
0.55384481 -0.39758763 1.8230001 4278780691
0.5573172 -0.39758763 1.8230001 4278518795
0.55771333 -0.39540669 1.8130001 4278518795
0.5611667 -0.39540669 1.8130001 4278518795
0.5677343 -0.39758763 1.8230001 4278453002
0.57120669 -0.39758763 1.8230001 4278387968
0.56868953 -0.39344382 1.8040001 4278716933
0.5661 -0.38930002 1.7850001 4279373071
0.56950003 -0.38930002 1.7850001 4279438864
0.57001144 -0.38733718 1.7760001 4279570200
0.57016569 -0.38515618 1.766 4278978063
0.57352948 -0.38515618 1.766 4278781447
0.57689339 -0.38515618 1.766 4278978826
0.59274292 -0.39344382 1.8040001 4279044869
0.59617907 -0.39344382 1.8040001 4279176455
0.61257809 -0.40194955 1.8430001 4279045148
0.61608857 -0.40194955 1.8430001 4278781976
0.6195991 -0.40194955 1.8430001 4278978063
0.62310952 -0.40194955 1.8430001 4279043856
0.62322003 -0.39976859 1.8330001 4278781967
0.62329239 -0.39758763 1.8230001 4278781967
0.62676477 -0.39758763 1.8230001 4279044898
0.63023716 -0.39758763 1.8230001 4278847519
0.63023341 -0.39540669 1.8130001 4278978063
0.63054103 -0.39344382 1.8040001 4278846477
0.63397717 -0.39344382 1.8040001 4278781447
0.63388002 -0.39126286 1.794 4278781447
0.63729715 -0.39126286 1.794 4278650631
0.64071429 -0.39126286 1.794 4278519045
0.64413142 -0.39126286 1.794 4278387470
0.64754862 -0.39126286 1.794 4278387470
0.64770001 -0.38930002 1.7850001 4278321668
0.65110004 -0.38930002 1.7850001 4278387461
0.65450001 -0.38930002 1.7850001 4278321675
0.65790004 -0.38930002 1.7850001 4278321675
0.66130006 -0.38930002 1.7850001 4278387470
0.66470003 -0.38930002 1.7850001 4278387470
0.6681 -0.38930002 1.7850001 4278321675
0.65758097 -0.38123047 1.748 4278387468
0.66091049 -0.38123047 1.748 4278321927
0.65777999 -0.37752286 1.7310001 4278321927
0.6610772 -0.37752286 1.7310001 4278321668
0.66437429 -0.37752286 1.7310001 4278321668
0.6676715 -0.37752286 1.7310001 4278321668
0.67096859 -0.37752286 1.7310001 4278453254
0.67426568 -0.37752286 1.7310001 4278518536
0.67756289 -0.37752286 1.7310001 4278386950
0.72120667 -0.38319334 1.7570001 4278321666
0.72084194 -0.38123047 1.748 4278321668
0.7241714 -0.38123047 1.748 4278387461
0.72750098 -0.38123047 1.748 4278321668
0.72706765 -0.37926763 1.7390001 4278321668
0.73038006 -0.37926763 1.7390001 4278321668
0.73748952 -0.38123047 1.748 4278321668
0.74081904 -0.38123047 1.748 4278321666
0.74414855 -0.38123047 1.748 4278321666
0.74747807 -0.38123047 1.748 4278321666
0.78369999 -0.38930002 1.7850001 4278584320
0.7707848 -0.38123047 1.748 4278584320
0.77012855 -0.37926763 1.7390001 4278649609
0.76988286 -0.37752286 1.7310001 4279768090
0.77318007 -0.37752286 1.7310001 4280822528
0.77647716 -0.37752286 1.7310001 4281019904
0.77572006 -0.37556002 1.7220001 4281411877
0.77900004 -0.37556002 1.7220001 4281346084
0.78228003 -0.37556002 1.7220001 4281213462
0.78556007 -0.37556002 1.7220001 4280818704
0.78884006 -0.37556002 1.7220001 4280558097
0.79212004 -0.37556002 1.7220001 4280887062
0.79540002 -0.37556002 1.7220001 4280558601
0.79450572 -0.37359715 1.7130001 4279176960
0.79776859 -0.37359715 1.7130001 4279043863
0.80524004 -0.37556002 1.7220001 4278978070
0.80852002 -0.37556002 1.7220001 4278518795
0.8160429 -0.37752286 1.7310001 4278387209
0.8538934 -0.39344382 1.8040001 4278387207
0.85732955 -0.39344382 1.8040001 4278518793
0.86076576 -0.39344382 1.8040001 4278584320
0.86420196 -0.39344382 1.8040001 4278781697
0.86763817 -0.39344382 1.8040001 4278585601
0.87107432 -0.39344382 1.8040001 4278454016
0.87451053 -0.39344382 1.8040001 4278453252
0.87308002 -0.39126286 1.794 4278519045
0.87649715 -0.39126286 1.794 4278453761
0.87991428 -0.39126286 1.794 4278519554
0.88333142 -0.39126286 1.794 4278387720
0.88230002 -0.38930002 1.7850001 4278387720
0.88570005 -0.38930002 1.7850001 4278453252
0.88461721 -0.38733718 1.7760001 4278519045
0.88300002 -0.38515618 1.766 4278519045
0.88184667 -0.38319334 1.7570001 4278453252
0.8761248 -0.37926763 1.7390001 4278452992
0.87539142 -0.37752286 1.7310001 4278518784
0.87868863 -0.37752286 1.7310001 4278387727
0.87740004 -0.37556002 1.7220001 4278256141
0.88068002 -0.37556002 1.7220001 4278321668
0.88396007 -0.37556002 1.7220001 4278321668
0.88724005 -0.37556002 1.7220001 4278519045
0.8905201 -0.37556002 1.7220001 4278650631
0.88912857 -0.37359715 1.7130001 4279044898
0.89239144 -0.37359715 1.7130001 4279900207
0.90036005 -0.37556002 1.7220001 4280100626
0.90364009 -0.37556002 1.7220001 4280100626
0.90692002 -0.37556002 1.7220001 4280429343
0.91020006 -0.37556002 1.7220001 4280758308
0.91348004 -0.37556002 1.7220001 4281413667
0.91676009 -0.37556002 1.7220001 4282400562
0.91523147 -0.37359715 1.7130001 4282925618
0.91420478 -0.3718524 1.705 4283254583
0.91745239 -0.3718524 1.705 4282992199
0.91584009 -0.36988956 1.6960001 4283255371
0.91907048 -0.36988956 1.6960001 4282990936
0.91795051 -0.36814478 1.6880001 4282793557
0.92116576 -0.36814478 1.6880001 4281280827
0.92438096 -0.36814478 1.6880001 4280951862
0.92759627 -0.36814478 1.6880001 4279307333
0.92640001 -0.3664 1.6800001 4278649403
0.9296 -0.3664 1.6800001 4278519045
0.93280005 -0.3664 1.6800001 4278453252
0.93600005 -0.3664 1.6800001 4278518552
0.94367242 -0.36814478 1.6880001 4278979103
-0.4168267 -0.46610668 2.1560001 4281215286
-0.41272002 -0.46610668 2.1560001 4280952114
-0.40861335 -0.46610668 2.1560001 4280951601
-0.40450668 -0.46610668 2.1560001 4280820015
-0.40040001 -0.46610668 2.1560001 4280425509
-0.39629337 -0.46610668 2.1560001 4280030751
-0.39218667 -0.46610668 2.1560001 4279635993
-0.38808003 -0.46610668 2.1560001 4279307028
-0.38397336 -0.46610668 2.1560001 4279240731
-0.37986669 -0.46610668 2.1560001 4278780180
0.059520002 -0.43584001 2.016 4286681685
0.063359998 -0.43584001 2.016 4286354762
0.067600004 -0.4384343 2.0280001 4286354762
0.071462862 -0.4384343 2.0280001 4286091599
0.075325713 -0.4384343 2.0280001 4286420564
0.07918857 -0.4384343 2.0280001 4287539322
0.083051428 -0.4384343 2.0280001 4287407736
0.086914286 -0.4384343 2.0280001 4286885252
0.090777144 -0.4384343 2.0280001 4285832564
0.094640009 -0.4384343 2.0280001 4284847716
0.098502867 -0.4384343 2.0280001 4284584544
0.10176 -0.43584001 2.016 4283662678
0.10560001 -0.43584001 2.016 4283399506
0.10944 -0.43584001 2.016 4281228559
0.11328 -0.43584001 2.016 4279649536
0.11712001 -0.43584001 2.016 4280105472
0.12168001 -0.4384343 2.0280001 4279052800
0.12554286 -0.4384343 2.0280001 4278786560
0.12940572 -0.4384343 2.0280001 4278918146
0.13326858 -0.4384343 2.0280001 4279571483
0.13713144 -0.4384343 2.0280001 4279242518
0.1409943 -0.4384343 2.0280001 4278715402
0.14485715 -0.4384343 2.0280001 4279504918
0.14872001 -0.4384343 2.0280001 4280425009
0.15258285 -0.4384343 2.0280001 4280753974
0.27336666 -0.44643334 2.0650001 4280557858
0.2773 -0.44643334 2.0650001 4279899944
0.28123334 -0.44643334 2.0650001 4279636772
0.28516668 -0.44643334 2.0650001 4279110932
0.29091999 -0.44924381 2.0780001 4279045139
0.29337147 -0.44102862 2.0400002 4278782720
0.29725716 -0.44102862 2.0400002 4278321920
0.3011429 -0.44102862 2.0400002 4278453504
0.30502859 -0.44102862 2.0400002 4280487680
0.30709717 -0.4384343 2.0280001 4283711534
0.31096002 -0.4384343 2.0280001 4285159763
0.31482288 -0.4384343 2.0280001 4285949279
0.3168 -0.43584001 2.016 4286999385
0.32064 -0.43584001 2.016 4288381038
0.32448 -0.43584001 2.016 4288250481
0.32832 -0.43584001 2.016 4286605656
0.33216 -0.43584001 2.016 4285556026
0.33600003 -0.43584001 2.016 4284503338
0.33983999 -0.43584001 2.016 4284177703
0.42130002 -0.41400477 1.9150001 4285162087
0.42250669 -0.41162667 1.904 4284832872
0.42613333 -0.41162667 1.904 4280819499
0.42750287 -0.40946478 1.8940001 4281737746
0.4311105 -0.40946478 1.8940001 4284435259
0.43219337 -0.4070867 1.8830001 4283321423
0.43578002 -0.4070867 1.8830001 4278847499
0.43703336 -0.40492478 1.8730001 4278322690
0.44060099 -0.40492478 1.8730001 4279112206
0.44179717 -0.40276286 1.863 4279374104
0.44534573 -0.40276286 1.863 4279242518
0.44407526 -0.39843908 1.8430001 4279045139
0.44758573 -0.39843908 1.8430001 4279176725
0.45599145 -0.40276286 1.863 4278979346
0.45953998 -0.40276286 1.863 4278847760
0.46308857 -0.40276286 1.863 4279241235
0.46663713 -0.40276286 1.863 4279241235
0.47018573 -0.40276286 1.863 4279239949
0.47373429 -0.40276286 1.863 4279305742
0.47472095 -0.40060097 1.853 4278912270
0.4782505 -0.40060097 1.853 4278714891
0.48178002 -0.40060097 1.853 4278321927
0.48530954 -0.40060097 1.853 4278256134
0.48883906 -0.40060097 1.853 4278452741
0.48971143 -0.39843908 1.8430001 4278715913
0.49322191 -0.39843908 1.8430001 4278978576
0.49673241 -0.39843908 1.8430001 4278978576
0.50024283 -0.39843908 1.8430001 4278913803
0.50375336 -0.39843908 1.8430001 4278913803
0.50726384 -0.39843908 1.8430001 4278650381
0.51077425 -0.39843908 1.8430001 4278321416
0.51707524 -0.40060097 1.853 4278190082
0.52060479 -0.40060097 1.853 4278190082
0.52413428 -0.40060097 1.853 4278190600
0.52766383 -0.40060097 1.853 4278322186
0.53119332 -0.40060097 1.853 4278387470
0.53472286 -0.40060097 1.853 4278255884
0.53534758 -0.39843908 1.8430001 4278452741
0.53885812 -0.39843908 1.8430001 4278913292
0.54236859 -0.39843908 1.8430001 4278977822
0.54587907 -0.39843908 1.8430001 4278846236
0.54342759 -0.39411524 1.8230001 4278846484
0.54689997 -0.39411524 1.8230001 4278912277
0.55037242 -0.39411524 1.8230001 4278716181
0.55384481 -0.39411524 1.8230001 4278650388
0.55426002 -0.39195335 1.8130001 4278650388
0.55771333 -0.39195335 1.8130001 4278716181
0.5611667 -0.39195335 1.8130001 4278716174
0.5677343 -0.39411524 1.8230001 4278716174
0.57120669 -0.39411524 1.8230001 4278650631
0.57152671 -0.39195335 1.8130001 4278848010
0.56895429 -0.38784572 1.794 4279241235
0.57237142 -0.38784572 1.794 4279372821
0.57290006 -0.38589999 1.7850001 4279372317
0.57630002 -0.38589999 1.7850001 4279043352
0.5858705 -0.39000764 1.8040001 4278847490
0.58930671 -0.39000764 1.8040001 4278979076
0.59274292 -0.39000764 1.8040001 4279176196
0.60245812 -0.39411524 1.8230001 4279439368
0.60593051 -0.39411524 1.8230001 4279307028
0.60940289 -0.39411524 1.8230001 4279043856
0.61623716 -0.39627713 1.8330001 4279241739
0.61972857 -0.39627713 1.8330001 4279307532
0.61982 -0.39411524 1.8230001 4279043856
0.62329239 -0.39411524 1.8230001 4279043856
0.62332672 -0.39195335 1.8130001 4279306524
0.62678003 -0.39195335 1.8130001 4279240731
0.63023341 -0.39195335 1.8130001 4278978576
0.63368666 -0.39195335 1.8130001 4278912783
0.63713998 -0.39195335 1.8130001 4278978576
0.63741338 -0.39000764 1.8040001 4279175955
0.64084953 -0.39000764 1.8040001 4278978576
0.64428574 -0.39000764 1.8040001 4278912783
0.64772195 -0.39000764 1.8040001 4278716174
0.64754862 -0.38784572 1.794 4278781967
0.65096575 -0.38784572 1.794 4278650388
0.65110004 -0.38589999 1.7850001 4278650388
0.65450001 -0.38589999 1.7850001 4278650131
0.65790004 -0.38589999 1.7850001 4278650131
0.66130006 -0.38589999 1.7850001 4278321960
0.66470003 -0.38589999 1.7850001 4278190374
0.6681 -0.38589999 1.7850001 4278518795
0.67150003 -0.38589999 1.7850001 4278518795
0.6544829 -0.37422574 1.7310001 4278453000
0.65777999 -0.37422574 1.7310001 4278453000
0.6610772 -0.37422574 1.7310001 4278387207
0.66437429 -0.37422574 1.7310001 4278321414
0.6676715 -0.37422574 1.7310001 4278387459
0.67096859 -0.37422574 1.7310001 4278453252
0.67426568 -0.37422574 1.7310001 4278387470
0.67756289 -0.37422574 1.7310001 4278387470
0.77636576 -0.38395432 1.7760001 4278387459
0.77974862 -0.38395432 1.7760001 4278518784
0.77475333 -0.37984669 1.7570001 4278518784
0.77411431 -0.37790096 1.748 4278452743
0.76988286 -0.37422574 1.7310001 4279900189
0.77318007 -0.37422574 1.7310001 4280889630
0.77647716 -0.37422574 1.7310001 4280758044
0.77977431 -0.37422574 1.7310001 4281479210
0.77900004 -0.37228003 1.7220001 4281545003
0.78228003 -0.37228003 1.7220001 4281543713
0.78556007 -0.37228003 1.7220001 4280885783
0.78884006 -0.37228003 1.7220001 4280754724
0.79212004 -0.37228003 1.7220001 4280688931
0.79540002 -0.37228003 1.7220001 4280491552
0.79868007 -0.37228003 1.7220001 4279438864
0.80196005 -0.37228003 1.7220001 4279109656
0.80524004 -0.37228003 1.7220001 4278583312
0.81274575 -0.37422574 1.7310001 4278387459
0.81981432 -0.37595525 1.7390001 4278321666
0.8538934 -0.39000764 1.8040001 4278255873
0.85732955 -0.39000764 1.8040001 4278453252
0.86076576 -0.39000764 1.8040001 4278453761
0.86420196 -0.39000764 1.8040001 4278519554
0.86763817 -0.39000764 1.8040001 4278650631
0.87107432 -0.39000764 1.8040001 4278519045
0.87451053 -0.39000764 1.8040001 4278519045
0.87794673 -0.39000764 1.8040001 4278519045
0.87649715 -0.38784572 1.794 4278584838
0.87991428 -0.38784572 1.794 4278519045
0.88333142 -0.38784572 1.794 4278387459
0.88674855 -0.38784572 1.794 4278387459
0.88570005 -0.38589999 1.7850001 4278519808
0.88461721 -0.38395432 1.7760001 4278454016
0.88800007 -0.38395432 1.7760001 4278649859
0.88184667 -0.37984669 1.7570001 4278584066
0.8761248 -0.37595525 1.7390001 4278387968
0.87539142 -0.37422574 1.7310001 4278387968
0.87868863 -0.37422574 1.7310001 4278387720
0.87740004 -0.37228003 1.7220001 4278256134
0.88068002 -0.37228003 1.7220001 4278321153
0.88396007 -0.37228003 1.7220001 4278584325
0.88724005 -0.37228003 1.7220001 4279174406
0.88586575 -0.3703343 1.7130001 4279371785
0.88912857 -0.3703343 1.7130001 4279897618
0.89239144 -0.3703343 1.7130001 4280489755
0.90036005 -0.37228003 1.7220001 4280624421
0.90364009 -0.37228003 1.7220001 4280756007
0.90692002 -0.37228003 1.7220001 4280888876
0.91020006 -0.37228003 1.7220001 4281020462
0.91348004 -0.37228003 1.7220001 4281808175
0.91676009 -0.37228003 1.7220001 4282597691
0.91523147 -0.3703343 1.7130001 4282795840
0.91420478 -0.36860475 1.705 4282795840
0.91745239 -0.36860475 1.705 4282533701
0.91584009 -0.36665908 1.6960001 4282270529
0.91907048 -0.36665908 1.6960001 4281942602
0.91795051 -0.36492956 1.6880001 4281416258
0.92116576 -0.36492956 1.6880001 4279115818
0.92438096 -0.36492956 1.6880001 4278984232
0.92759627 -0.36492956 1.6880001 4278453548
0.92640001 -0.36320001 1.6800001 4278190116
0.9296 -0.36320001 1.6800001 4278387200
0.93280005 -0.36320001 1.6800001 4278518784
0.93600005 -0.36320001 1.6800001 4278715152
0.94367242 -0.36492956 1.6880001 4279241496
-0.4168267 -0.46200004 2.1560001 4281149743
-0.41272002 -0.46200004 2.1560001 4280886571
-0.41126668 -0.46500003 2.1700001 4280951853
-0.40713334 -0.46500003 2.1700001 4280557095
-0.40040001 -0.46200004 2.1560001 4280228380
-0.39629337 -0.46200004 2.1560001 4279833622
-0.39218667 -0.46200004 2.1560001 4279111182
-0.38808003 -0.46200004 2.1560001 4278913803
-0.38397336 -0.46200004 2.1560001 4278781726
-0.37986669 -0.46200004 2.1560001 4278781726
-0.23175241 -0.4534286 2.1160002 4278386950
-0.22772191 -0.4534286 2.1160002 4278452743
-0.095151432 -0.41978574 1.9590001 4287995004
-0.091420002 -0.41978574 1.9590001 4285823835
0.021120001 -0.43200001 2.016 4286746442
0.024823811 -0.42964289 2.0050001 4287340092
0.028642857 -0.42964289 2.0050001 4287800643
0.047738098 -0.42964289 2.0050001 4286289201
0.051557146 -0.42964289 2.0050001 4285960236
0.055679999 -0.43200001 2.016 4286157056
0.059520002 -0.43200001 2.016 4285235968
0.063359998 -0.43200001 2.016 4284116746
0.067600004 -0.43457144 2.0280001 4283261440
0.071462862 -0.43457144 2.0280001 4282210323
0.075325713 -0.43457144 2.0280001 4281618186
0.07918857 -0.43457144 2.0280001 4281356323
0.083051428 -0.43457144 2.0280001 4281356323
0.086914286 -0.43457144 2.0280001 4279913002
0.090777144 -0.43457144 2.0280001 4279320865
0.094640009 -0.43457144 2.0280001 4278794807
0.098502867 -0.43457144 2.0280001 4278400049
0.10236572 -0.43457144 2.0280001 4278593835
0.10622858 -0.43457144 2.0280001 4278264870
0.10944 -0.43200001 2.016 4278459673
0.11328 -0.43200001 2.016 4278195730
0.11712001 -0.43200001 2.016 4279181329
0.12096 -0.43200001 2.016 4279905052
0.12554286 -0.43457144 2.0280001 4281085501
0.12940572 -0.43457144 2.0280001 4282796119
0.13326858 -0.43457144 2.0280001 4283320678
0.13713144 -0.43457144 2.0280001 4283189092
0.14015999 -0.43200001 2.016 4282136136
0.14399999 -0.43200001 2.016 4282070343
0.14784001 -0.43200001 2.016 4282004568
0.15168001 -0.43200001 2.016 4281609810
0.29915145 -0.43992862 2.0530002 4278978070
0.30306193 -0.43992862 2.0530002 4278517775
0.30891433 -0.43714288 2.0400002 4284042575
0.31096002 -0.43457144 2.0280001 4285357667
0.31482288 -0.43457144 2.0280001 4285028702
0.3168 -0.43200001 2.016 4285817173
0.32064 -0.43200001 2.016 4286804068
0.32448 -0.43200001 2.016 4286607707
0.32832 -0.43200001 2.016 4285489226
0.33413717 -0.43457144 2.0280001 4284244752
0.33800003 -0.43457144 2.0280001 4283849994
0.34186289 -0.43457144 2.0280001 4283853312
0.42613333 -0.40800002 1.904 4281214257
0.42750287 -0.40585718 1.8940001 4279963411
0.4311105 -0.40585718 1.8940001 4280292376
0.43219337 -0.40350002 1.8830001 4279176975
0.43346575 -0.40135714 1.8730001 4278716424
0.43703336 -0.40135714 1.8730001 4279110932
0.44060099 -0.40135714 1.8730001 4279374104
0.4441686 -0.40135714 1.8730001 4279176725
0.44534573 -0.3992143 1.863 4279045139
0.44889429 -0.3992143 1.863 4279110932
0.45244285 -0.3992143 1.863 4279176725
0.45354381 -0.39707145 1.853 4279438110
0.45707333 -0.39707145 1.853 4279306524
0.46060288 -0.39707145 1.853 4279307028
0.4641324 -0.39707145 1.853 4279307028
0.46766192 -0.39707145 1.853 4279371785
0.47119144 -0.39707145 1.853 4279437578
0.47472095 -0.39707145 1.853 4279241235
0.4782505 -0.39707145 1.853 4279241235
0.48178002 -0.39707145 1.853 4279241235
0.48530954 -0.39707145 1.853 4279241235
0.48883906 -0.39707145 1.853 4278847760
0.48971143 -0.39492857 1.8430001 4278847760
0.49322191 -0.39492857 1.8430001 4278847760
0.49673241 -0.39492857 1.8430001 4278913553
0.50024283 -0.39492857 1.8430001 4278782467
0.50375336 -0.39492857 1.8430001 4278782467
0.50726384 -0.39492857 1.8430001 4278913803
0.51077425 -0.39492857 1.8430001 4278979596
0.51707524 -0.39707145 1.853 4278979346
0.52060479 -0.39707145 1.853 4278979346
0.52130574 -0.39492857 1.8430001 4278979355
0.52481622 -0.39492857 1.8430001 4279045148
0.53119332 -0.39707145 1.853 4278979355
0.53472286 -0.39707145 1.853 4278979355
0.53534758 -0.39492857 1.8430001 4279241235
0.53885812 -0.39492857 1.8430001 4279307028
0.53942573 -0.39278573 1.8330001 4279306524
0.54291719 -0.39278573 1.8330001 4279043352
0.54342759 -0.39064288 1.8230001 4278781726
0.54689997 -0.39064288 1.8230001 4278715933
0.55037242 -0.39064288 1.8230001 4278716181
0.55384481 -0.39064288 1.8230001 4278716181
0.55426002 -0.38850001 1.8130001 4278716181
0.55771333 -0.38850001 1.8130001 4278650388
0.5611667 -0.38850001 1.8130001 4278912781
0.56462002 -0.38850001 1.8130001 4278846988
0.57120669 -0.39064288 1.8230001 4278716174
0.57152671 -0.38850001 1.8130001 4278781967
0.57212573 -0.38657144 1.8040001 4278978063
0.57556194 -0.38657144 1.8040001 4278978063
0.57578856 -0.38442856 1.794 4278978826
0.57920575 -0.38442856 1.794 4278781447
0.5858705 -0.38657144 1.8040001 4278519808
0.59224665 -0.38850001 1.8130001 4278651394
0.59570003 -0.38850001 1.8130001 4278847240
0.60245812 -0.39064288 1.8230001 4278978826
0.60593051 -0.39064288 1.8230001 4278978576
0.60940289 -0.39064288 1.8230001 4278912783
0.61287528 -0.39064288 1.8230001 4278979596
0.61634767 -0.39064288 1.8230001 4278848010
0.61642003 -0.38850001 1.8130001 4278978576
0.61987334 -0.38850001 1.8130001 4278912783
0.62023246 -0.38657144 1.8040001 4278978063
0.62366861 -0.38657144 1.8040001 4279043856
0.62710476 -0.38657144 1.8040001 4278978576
0.63368666 -0.38850001 1.8130001 4278978576
0.63713998 -0.38850001 1.8130001 4278978576
0.63741338 -0.38657144 1.8040001 4278912783
0.64084953 -0.38657144 1.8040001 4278912781
0.64428574 -0.38657144 1.8040001 4278912781
0.64772195 -0.38657144 1.8040001 4278716174
0.65115815 -0.38657144 1.8040001 4278781967
0.65096575 -0.38442856 1.794 4278913312
0.65110004 -0.38250002 1.7850001 4278979105
0.65450001 -0.38250002 1.7850001 4278912277
0.65790004 -0.38250002 1.7850001 4278978070
0.66130006 -0.38250002 1.7850001 4278716468
0.66470003 -0.38250002 1.7850001 4278519089
0.6681 -0.38250002 1.7850001 4278716174
0.67488569 -0.38442856 1.794 4278847760
0.67830288 -0.38442856 1.794 4278847767
0.68172002 -0.38442856 1.794 4278716181
0.6610772 -0.37092859 1.7310001 4278716424
0.66437429 -0.37092859 1.7310001 4278716424
0.66420001 -0.36900002 1.7220001 4278847240
0.66748005 -0.36900002 1.7220001 4278978826
0.67076004 -0.36900002 1.7220001 4278847767
0.67756289 -0.37092859 1.7310001 4278650388
0.68085998 -0.37092859 1.7310001 4278650381
0.77636576 -0.38057145 1.7760001 4278255875
0.77974862 -0.38057145 1.7760001 4278321408
0.77872193 -0.37842858 1.766 4278387200
0.77810007 -0.37650001 1.7570001 4278518284
0.77744383 -0.37457144 1.748 4279242007
0.78077334 -0.37457144 1.748 4279768583
0.78006572 -0.37264287 1.7390001 4279636997
0.77977431 -0.37092859 1.7310001 4280227087
0.78307146 -0.37092859 1.7310001 4280358673
0.78228003 -0.36900002 1.7220001 4280424714
0.78556007 -0.36900002 1.7220001 4280622093
0.78884006 -0.36900002 1.7220001 4280492335
0.79212004 -0.36900002 1.7220001 4280163370
0.79540002 -0.36900002 1.7220001 4280097546
0.79868007 -0.36900002 1.7220001 4279834374
0.80196005 -0.36900002 1.7220001 4279635241
0.80524004 -0.36900002 1.7220001 4278977311
0.84702098 -0.38657144 1.8040001 4278716174
0.85045719 -0.38657144 1.8040001 4279834655
0.8538934 -0.38657144 1.8040001 4278650381
0.86160666 -0.38850001 1.8130001 4278255623
0.86506003 -0.38850001 1.8130001 4278255875
0.86851335 -0.38850001 1.8130001 4278321668
0.86763817 -0.38657144 1.8040001 4278387459
0.87107432 -0.38657144 1.8040001 4278321666
0.87451053 -0.38657144 1.8040001 4278321666
0.87794673 -0.38657144 1.8040001 4278321666
0.87649715 -0.38442856 1.794 4278255875
0.87991428 -0.38442856 1.794 4278255875
0.88333142 -0.38442856 1.794 4278190080
0.88674855 -0.38442856 1.794 4278190080
0.88570005 -0.38250002 1.7850001 4278190080
0.88910002 -0.38250002 1.7850001 4278190080
0.88300002 -0.37842858 1.766 4278190080
0.87281245 -0.37264287 1.7390001 4278190080
0.87209433 -0.37092859 1.7310001 4278190080
0.87539142 -0.37092859 1.7310001 4278190080
0.87868863 -0.37092859 1.7310001 4278190080
0.87740004 -0.36900002 1.7220001 4278190080
0.88068002 -0.36900002 1.7220001 4278190080
0.88396007 -0.36900002 1.7220001 4278190080
0.88724005 -0.36900002 1.7220001 4278321153
0.88586575 -0.36707145 1.7130001 4278452739
0.88912857 -0.36707145 1.7130001 4278912270
0.89239144 -0.36707145 1.7130001 4279307028
0.90036005 -0.36900002 1.7220001 4279702036
0.90364009 -0.36900002 1.7220001 4279767829
0.90692002 -0.36900002 1.7220001 4279505940
0.91020006 -0.36900002 1.7220001 4279505940
0.91348004 -0.36900002 1.7220001 4279505690
0.91676009 -0.36900002 1.7220001 4279637276
0.91523147 -0.36707145 1.7130001 4279570979
0.91420478 -0.36535713 1.705 4279176221
0.91745239 -0.36535713 1.705 4278651664
0.91584009 -0.36342859 1.6960001 4278454285
0.91907048 -0.36342859 1.6960001 4278386983
0.91795051 -0.3617143 1.6880001 4279176499
0.92116576 -0.3617143 1.6880001 4279966491
0.92438096 -0.3617143 1.6880001 4281611316
0.92759627 -0.3617143 1.6880001 4279574320
0.92640001 -0.35999998 1.6800001 4278190611
0.9296 -0.35999998 1.6800001 4278190336
-0.43193334 -0.46086666 2.1700001 4281277745
-0.4278 -0.46086666 2.1700001 4280951853
-0.42366666 -0.46086666 2.1700001 4281149232
-0.41953334 -0.46086666 2.1700001 4280951601
-0.4154 -0.46086666 2.1700001 4280820015
-0.41126668 -0.46086666 2.1700001 4280688431
-0.40713334 -0.46086666 2.1700001 4280293673
-0.40300003 -0.46086666 2.1700001 4279964958
-0.39629337 -0.45789334 2.1560001 4279438614
-0.39218667 -0.45789334 2.1560001 4278847760
-0.38808003 -0.45789334 2.1560001 4278518795
-0.38397336 -0.45789334 2.1560001 4278387727
-0.23578288 -0.44939813 2.1160002 4278321408
-0.23032859 -0.44663715 2.1030002 4278452224
-0.22632287 -0.44663715 2.1030002 4278452224
-0.22231716 -0.44663715 2.1030002 4278321408
-0.21831144 -0.44663715 2.1030002 4278255616
-0.21430573 -0.44663715 2.1030002 4278255625
-0.21030001 -0.44663715 2.1030002 4278386955
-0.20629431 -0.44663715 2.1030002 4278190082
-0.11069525 -0.41839051 1.9700001 4282672384
-0.10694286 -0.41839051 1.9700001 4281817088
-0.10261428 -0.41605431 1.9590001 4281095690
-0.098882861 -0.41605431 1.9590001 4286622302
-0.095151432 -0.41605431 1.9590001 4288194933
-0.091420002 -0.41605431 1.9590001 4286418522
-0.087688573 -0.41605431 1.9590001 4283588644
-0.083957151 -0.41605431 1.9590001 4283851816
-0.080225721 -0.41605431 1.9590001 4284116748
-0.044422857 -0.43070859 2.0280001 4284240640
-0.04056 -0.43070859 2.0280001 4284569600
-0.036697146 -0.43070859 2.0280001 4284504832
0.021120001 -0.42815998 2.016 4286880637
0.024823811 -0.42582384 2.0050001 4287147391
0.028642857 -0.42582384 2.0050001 4286226289
0.051557146 -0.42582384 2.0050001 4281492023
0.055376194 -0.42582384 2.0050001 4282211072
0.059195239 -0.42582384 2.0050001 4281750528
0.063359998 -0.42815998 2.016 4282075396
0.067600004 -0.43070859 2.0280001 4282141189
0.071462862 -0.43070859 2.0280001 4282665507
0.075325713 -0.43070859 2.0280001 4282270749
0.078719996 -0.42815998 2.016 4282399274
0.082560003 -0.42815998 2.016 4281938723
0.086914286 -0.43070859 2.0280001 4281610500
0.090777144 -0.43070859 2.0280001 4282334223
0.094640009 -0.43070859 2.0280001 4281413183
0.098502867 -0.43070859 2.0280001 4280821046
0.10236572 -0.43070859 2.0280001 4279965737
0.10622858 -0.43070859 2.0280001 4280294702
0.11009143 -0.43070859 2.0280001 4280426542
0.11328 -0.42815998 2.016 4281150265
0.11712001 -0.42815998 2.016 4282989387
0.12096 -0.42815998 2.016 4282792008
0.12554286 -0.43070859 2.0280001 4282728525
0.12940572 -0.43070859 2.0280001 4283057490
0.13326858 -0.43070859 2.0280001 4283713630
0.13631999 -0.42815998 2.016 4283318872
0.14015999 -0.42815998 2.016 4282070595
0.14399999 -0.42815998 2.016 4281412665
0.14784001 -0.42815998 2.016 4280231489
0.15168001 -0.42815998 2.016 4279507766
0.15552001 -0.42815998 2.016 4279305238
0.31096002 -0.43070859 2.0280001 4285686378
0.31482288 -0.43070859 2.0280001 4285160034
0.3168 -0.42815998 2.016 4284438866
0.32064 -0.42815998 2.016 4285031003
0.32641146 -0.43070859 2.0280001 4284835677
0.33027431 -0.43070859 2.0280001 4284506712
0.33413717 -0.43070859 2.0280001 4283259705
0.33800003 -0.43070859 2.0280001 4283588670
0.34186289 -0.43070859 2.0280001 4283066176
0.42750287 -0.40224952 1.8940001 4279242768
0.4311105 -0.40224952 1.8940001 4278782217
0.43219337 -0.39991334 1.8830001 4278454285
0.43346575 -0.39778957 1.8730001 4278783250
0.43703336 -0.39778957 1.8730001 4279372821
0.44060099 -0.39778957 1.8730001 4279372821
0.4441686 -0.39778957 1.8730001 4279110932
0.44773623 -0.39778957 1.8730001 4278847760
0.44889429 -0.39566571 1.863 4279110932
0.45244285 -0.39566571 1.863 4279242518
0.45354381 -0.39354193 1.853 4279438110
0.45707333 -0.39354193 1.853 4279372317
0.46060288 -0.39354193 1.853 4279307028
0.4641324 -0.39354193 1.853 4279307028
0.46766192 -0.39354193 1.853 4279241739
0.47119144 -0.39354193 1.853 4279307532
0.47472095 -0.39354193 1.853 4279307028
0.4782505 -0.39354193 1.853 4279241235
0.48178002 -0.39354193 1.853 4279307532
0.48530954 -0.39354193 1.853 4279307532
0.48883906 -0.39354193 1.853 4278847760
0.49236858 -0.39354193 1.853 4278716174
0.4958981 -0.39354193 1.853 4278520342
0.49942759 -0.39354193 1.853 4278520342
0.50295717 -0.39354193 1.853 4278585871
0.50375336 -0.3914181 1.8430001 4278651664
0.50726384 -0.3914181 1.8430001 4278783250
0.51354575 -0.39354193 1.853 4278783250
0.51707524 -0.39354193 1.853 4278913560
0.52060479 -0.39354193 1.853 4278847767
0.52130574 -0.3914181 1.8430001 4278979355
0.52481622 -0.3914181 1.8430001 4279045148
0.53119332 -0.39354193 1.853 4279306524
0.53472286 -0.39354193 1.853 4279240731
0.53534758 -0.3914181 1.8430001 4279241739
0.53885812 -0.3914181 1.8430001 4279241739
0.53942573 -0.3892943 1.8330001 4278979355
0.54291719 -0.3892943 1.8330001 4278979355
0.54938954 -0.3914181 1.8430001 4278913560
0.55290002 -0.3914181 1.8430001 4278847767
0.55037242 -0.38717049 1.8230001 4278781974
0.55384481 -0.38717049 1.8230001 4278716181
0.5573172 -0.38717049 1.8230001 4278781717
0.55771333 -0.38504666 1.8130001 4278847510
0.5611667 -0.38504666 1.8130001 4278978070
0.56462002 -0.38504666 1.8130001 4278912277
0.57120669 -0.38717049 1.8230001 4278912781
0.57467908 -0.38717049 1.8230001 4278846988
0.57498002 -0.38504666 1.8130001 4278846484
0.57843339 -0.38504666 1.8130001 4278846484
0.58188665 -0.38504666 1.8130001 4278912781
0.58534002 -0.38504666 1.8130001 4278781195
0.58879334 -0.38504666 1.8130001 4278519045
0.59224665 -0.38504666 1.8130001 4278584838
0.59570003 -0.38504666 1.8130001 4278650631
0.59915334 -0.38504666 1.8130001 4278848010
0.60260665 -0.38504666 1.8130001 4278586135
0.60606003 -0.38504666 1.8130001 4278520342
0.60951334 -0.38504666 1.8130001 4278848010
0.61296672 -0.38504666 1.8130001 4278979596
0.61336005 -0.38313526 1.8040001 4278847760
0.61679626 -0.38313526 1.8040001 4278716174
0.61679429 -0.38101143 1.794 4278847240
0.62021142 -0.38101143 1.794 4278978826
0.62362856 -0.38101143 1.794 4278978826
0.63054103 -0.38313526 1.8040001 4278913033
0.63397717 -0.38313526 1.8040001 4278978063
0.63741338 -0.38313526 1.8040001 4278912270
0.64084953 -0.38313526 1.8040001 4278716174
0.64428574 -0.38313526 1.8040001 4278650381
0.64772195 -0.38313526 1.8040001 4278650631
0.64754862 -0.38101143 1.794 4278716424
0.65096575 -0.38101143 1.794 4278978070
0.65438282 -0.38101143 1.794 4278978070
0.65780002 -0.38101143 1.794 4278912277
0.65790004 -0.37910002 1.7850001 4278912277
0.66130006 -0.37910002 1.7850001 4278781213
0.66470003 -0.37910002 1.7850001 4278781213
0.6681 -0.37910002 1.7850001 4278781967
0.67488569 -0.38101143 1.794 4278781967
0.67830288 -0.38101143 1.794 4279043856
0.68172002 -0.38101143 1.794 4278978063
0.68513709 -0.38101143 1.794 4278716424
0.66437429 -0.36763144 1.7310001 4278716424
0.66420001 -0.36572003 1.7220001 4278913033
0.66748005 -0.36572003 1.7220001 4279110412
0.67076004 -0.36572003 1.7220001 4278978070
0.67404008 -0.36572003 1.7220001 4278846484
0.78030008 -0.37910002 1.7850001 4278321666
0.78369999 -0.37910002 1.7850001 4278387200
0.78313148 -0.37718859 1.7760001 4278387200
0.78208572 -0.37506476 1.766 4278452743
0.7814467 -0.37315333 1.7570001 4278518536
0.78077334 -0.37124193 1.748 4278846211
0.78410286 -0.37124193 1.748 4278846211
0.78337812 -0.3693305 1.7390001 4279042561
0.78307146 -0.36763144 1.7310001 4279108354
0.78636855 -0.36763144 1.7310001 4278780418
0.78966576 -0.36763144 1.7310001 4279043590
0.79296285 -0.36763144 1.7310001 4279767579
0.79626006 -0.36763144 1.7310001 4279635993
0.79540002 -0.36572003 1.7220001 4279570954
0.79868007 -0.36572003 1.7220001 4281347365
0.80196005 -0.36572003 1.7220001 4282268492
0.8524695 -0.38717049 1.8230001 4282400078
0.85594189 -0.38717049 1.8230001 4281873466
0.85941428 -0.38717049 1.8230001 4281807673
0.85815334 -0.38504666 1.8130001 4281282128
0.86160666 -0.38504666 1.8130001 4278716201
0.86506003 -0.38504666 1.8130001 4278452491
0.86851335 -0.38504666 1.8130001 4278584077
0.86763817 -0.38313526 1.8040001 4278716424
0.87107432 -0.38313526 1.8040001 4278584838
0.87451053 -0.38313526 1.8040001 4278518795
0.87308002 -0.38101143 1.794 4278321416
0.87649715 -0.38101143 1.794 4278190080
0.87991428 -0.38101143 1.794 4278321664
0.88333142 -0.38101143 1.794 4278453263
0.88674855 -0.38101143 1.794 4278321677
0.89016569 -0.38101143 1.794 4278190087
0.88910002 -0.37910002 1.7850001 4278190086
0.87400001 -0.37124193 1.748 4278190080
0.86879718 -0.36763144 1.7310001 4278255873
0.87209433 -0.36763144 1.7310001 4278255616
0.87084007 -0.36572003 1.7220001 4278255616
0.87412006 -0.36572003 1.7220001 4278255873
0.87740004 -0.36572003 1.7220001 4278190080
0.88068002 -0.36572003 1.7220001 4278255872
0.88396007 -0.36572003 1.7220001 4278650629
0.88724005 -0.36572003 1.7220001 4279110932
0.8905201 -0.36572003 1.7220001 4279110932
0.88912857 -0.3638086 1.7130001 4279371068
0.89239144 -0.3638086 1.7130001 4278911029
0.90036005 -0.36572003 1.7220001 4278649859
0.90364009 -0.36572003 1.7220001 4279307789
0.90692002 -0.36572003 1.7220001 4279308311
0.91020006 -0.36572003 1.7220001 4279308311
0.91348004 -0.36572003 1.7220001 4278849557
0.92155147 -0.36763144 1.7310001 4278652178
0.92484862 -0.36763144 1.7310001 4278717723
0.92814577 -0.36763144 1.7310001 4278191379
0.92175716 -0.3638086 1.7130001 4278584077
0.92070001 -0.36210951 1.705 4278386698
0.91907048 -0.36019811 1.6960001 4278780166
0.91795051 -0.35849905 1.6880001 4282267195
0.92116576 -0.35849905 1.6880001 4282268994
0.92438096 -0.35849905 1.6880001 4282729545
0.92759627 -0.35849905 1.6880001 4281809497
-0.43193334 -0.45673335 2.1700001 4281080384
-0.4278 -0.45673335 2.1700001 4280884513
-0.42366666 -0.45673335 2.1700001 4281147685
-0.41953334 -0.45673335 2.1700001 4280820015
-0.4154 -0.45673335 2.1700001 4280688429
-0.41126668 -0.45673335 2.1700001 4280293419
-0.40713334 -0.45673335 2.1700001 4279701282
-0.40300003 -0.45673335 2.1700001 4279570200
-0.39886668 -0.45673335 2.1700001 4279175442
-0.39473334 -0.45673335 2.1700001 4278781967
-0.3906 -0.45673335 2.1700001 4278518795
-0.38646668 -0.45673335 2.1700001 4278715924
-0.24787432 -0.44536766 2.1160002 4279566848
-0.24384382 -0.44536766 2.1160002 4283909183
-0.23981334 -0.44536766 2.1160002 4288580608
-0.23578288 -0.44536766 2.1160002 4290488602
-0.23032859 -0.44263145 2.1030002 4290356620
-0.22632287 -0.44263145 2.1030002 4290685585
-0.22231716 -0.44263145 2.1030002 4289963931
-0.21831144 -0.44263145 2.1030002 4289766552
-0.21430573 -0.44263145 2.1030002 4289373817
-0.21030001 -0.44263145 2.1030002 4286676304
-0.20629431 -0.44263145 2.1030002 4285165135
-0.20228858 -0.44263145 2.1030002 4282401829
-0.17896667 -0.43463334 2.0650001 4286212713
-0.17503333 -0.43463334 2.0650001 4285752162
-0.17109999 -0.43463334 2.0650001 4284964165
-0.16716668 -0.43463334 2.0650001 4283977270
-0.16323334 -0.43463334 2.0650001 4282863138
-0.11069525 -0.4146381 1.9700001 4288724002
-0.10694286 -0.4146381 1.9700001 4289316139
-0.10261428 -0.41232288 1.9590001 4287409446
-0.098882861 -0.41232288 1.9590001 4287935790
-0.095151432 -0.41232288 1.9590001 4287935781
-0.091420002 -0.41232288 1.9590001 4287343644
-0.087688573 -0.41232288 1.9590001 4287999828
-0.06643334 -0.41947907 1.9930001 4287473207
-0.06263715 -0.41947907 1.9930001 4287407414
-0.048 -0.42432001 2.016 4288591137
-0.043919049 -0.42200476 2.0050001 4288260926
-0.040100005 -0.42200476 2.0050001 4288984649
-0.036280952 -0.42200476 2.0050001 4288459031
-0.013286668 -0.41947907 1.9930001 4284119567
-0.0094904769 -0.41947907 1.9930001 4283132672
-0.0057600001 -0.42432001 2.016 4282731855
-0.0019200001 -0.42432001 2.016 4281744960
0.0019200001 -0.42432001 2.016 4282009649
0.0057285717 -0.42200476 2.0050001 4281351719
0.0095476191 -0.42200476 2.0050001 4278989077
0.021120001 -0.42432001 2.016 4279120413
0.024675241 -0.41947907 1.9930001 4278663684
0.028471431 -0.41947907 1.9930001 4278795270
0.051557146 -0.42200476 2.0050001 4278661420
0.055376194 -0.42200476 2.0050001 4279644217
0.059195239 -0.42200476 2.0050001 4279710010
0.063014284 -0.42200476 2.0050001 4279966266
0.067199998 -0.42432001 2.016 4279900473
0.071040004 -0.42432001 2.016 4281082653
0.074879996 -0.42432001 2.016 4281411618
0.078719996 -0.42432001 2.016 4281935434
0.082560003 -0.42432001 2.016 4281672262
0.086914286 -0.42684573 2.0280001 4283584796
0.090777144 -0.42684573 2.0280001 4284374312
0.094640009 -0.42684573 2.0280001 4283254633
0.098502867 -0.42684573 2.0280001 4282399324
0.10236572 -0.42684573 2.0280001 4283452239
0.10622858 -0.42684573 2.0280001 4283978583
0.11009143 -0.42684573 2.0280001 4283913317
0.11328 -0.42432001 2.016 4283715938
0.11712001 -0.42432001 2.016 4282334306
0.12096 -0.42432001 2.016 4281413204
0.1248 -0.42432001 2.016 4280489031
0.12864001 -0.42432001 2.016 4279962687
0.13248 -0.42432001 2.016 4279502610
0.1355762 -0.42200476 2.0050001 4279305231
0.13939524 -0.42200476 2.0050001 4278649609
0.1432143 -0.42200476 2.0050001 4278452230
0.14784001 -0.42432001 2.016 4278321927
0.15168001 -0.42432001 2.016 4278585099
0.15552001 -0.42432001 2.016 4279239445
0.32445717 -0.42937148 2.0400002 4285095767
0.32834288 -0.42937148 2.0400002 4284834142
0.3322286 -0.42937148 2.0400002 4284965728
0.33825621 -0.43210766 2.0530002 4284505454
0.34216669 -0.43210766 2.0530002 4284373868
0.42502001 -0.39632669 1.8830001 4278453000
0.42860669 -0.39632669 1.8830001 4279242516
0.43219337 -0.39632669 1.8830001 4278979355
0.43346575 -0.39422193 1.8730001 4278716183
0.43703336 -0.39422193 1.8730001 4278452743
0.44060099 -0.39422193 1.8730001 4278321157
0.4441686 -0.39422193 1.8730001 4278190080
0.44773623 -0.39422193 1.8730001 4278190080
0.44889429 -0.39211717 1.863 4278190082
0.45244285 -0.39211717 1.863 4278255875
0.45599145 -0.39211717 1.863 4278386696
0.45953998 -0.39211717 1.863 4278584075
0.46060288 -0.39001238 1.853 4278780691
0.4641324 -0.39001238 1.853 4279175449
0.46766192 -0.39001238 1.853 4279241235
0.47119144 -0.39001238 1.853 4279372821
0.47472095 -0.39001238 1.853 4279241739
0.4782505 -0.39001238 1.853 4279241739
0.48178002 -0.39001238 1.853 4279241989
0.48269048 -0.38790762 1.8430001 4279241989
0.48620096 -0.38790762 1.8430001 4278716174
0.48971143 -0.38790762 1.8430001 4278716174
0.49322191 -0.38790762 1.8430001 4278715420
0.49673241 -0.38790762 1.8430001 4278715420
0.50024283 -0.38790762 1.8430001 4278715924
0.50375336 -0.38790762 1.8430001 4278847510
0.50726384 -0.38790762 1.8430001 4278978063
0.51354575 -0.39001238 1.853 4279175442
0.51707524 -0.39001238 1.853 4279043863
0.52060479 -0.39001238 1.853 4279043863
0.52413428 -0.39001238 1.853 4278913560
0.52766383 -0.39001238 1.853 4278979353
0.53119332 -0.39001238 1.853 4279240731
0.53472286 -0.39001238 1.853 4279043352
0.53534758 -0.38790762 1.8430001 4278913033
0.53885812 -0.38790762 1.8430001 4279176205
0.54236859 -0.38790762 1.8430001 4279241235
0.54587907 -0.38790762 1.8430001 4279175442
0.54640859 -0.38580287 1.8330001 4279109656
0.5499 -0.38580287 1.8330001 4278978070
0.55339146 -0.38580287 1.8330001 4278978070
0.55688292 -0.38580287 1.8330001 4278978070
0.56343144 -0.38790762 1.8430001 4278978070
0.56386572 -0.38580287 1.8330001 4278978070
0.56735718 -0.38580287 1.8330001 4278978070
0.5677343 -0.38369811 1.8230001 4278978070
0.57120669 -0.38369811 1.8230001 4278781717
0.57467908 -0.38369811 1.8230001 4278781717
0.57815146 -0.38369811 1.8230001 4278716181
0.57843339 -0.38159335 1.8130001 4278716181
0.58188665 -0.38159335 1.8130001 4278716174
0.58534002 -0.38159335 1.8130001 4278650381
0.58879334 -0.38159335 1.8130001 4278650631
0.59224665 -0.38159335 1.8130001 4278650631
0.59570003 -0.38159335 1.8130001 4278782217
0.59915334 -0.38159335 1.8130001 4278848010
0.60260665 -0.38159335 1.8130001 4278979355
0.60606003 -0.38159335 1.8130001 4278913562
0.60951334 -0.38159335 1.8130001 4278848260
0.60992384 -0.37969905 1.8040001 4278979846
0.61336005 -0.37969905 1.8040001 4279175442
0.61337715 -0.37759429 1.794 4278978063
0.61679429 -0.37759429 1.794 4278781697
0.62021142 -0.37759429 1.794 4278913283
0.62362856 -0.37759429 1.794 4278979074
0.63054103 -0.37969905 1.8040001 4278979074
0.63397717 -0.37969905 1.8040001 4278978826
0.63741338 -0.37969905 1.8040001 4278913033
0.64084953 -0.37969905 1.8040001 4278782217
0.64428574 -0.37969905 1.8040001 4278716424
0.64413142 -0.37759429 1.794 4278651394
0.64754862 -0.37759429 1.794 4278717187
0.65096575 -0.37759429 1.794 4278978826
0.65438282 -0.37759429 1.794 4278913033
0.65780002 -0.37759429 1.794 4278912270
0.65790004 -0.3757 1.7850001 4278912270
0.66130006 -0.3757 1.7850001 4278846484
0.66470003 -0.3757 1.7850001 4278912277
0.6681 -0.3757 1.7850001 4278847240
0.67150003 -0.3757 1.7850001 4278913033
0.6749 -0.3757 1.7850001 4278978063
0.68172002 -0.37759429 1.794 4278978063
0.68513709 -0.37759429 1.794 4278847240
0.68855429 -0.37759429 1.794 4278781447
0.66420001 -0.36244002 1.7220001 4278781447
0.66399145 -0.36054569 1.7130001 4278913033
0.66725427 -0.36054569 1.7130001 4278912781
0.67404008 -0.36244002 1.7220001 4278846988
0.70564002 -0.37759429 1.794 4278716174
0.70905715 -0.37759429 1.794 4278716174
0.77974862 -0.37380573 1.7760001 4278649859
0.78313148 -0.37380573 1.7760001 4278649859
0.78208572 -0.37170097 1.766 4278649609
0.7814467 -0.36980668 1.7570001 4278583816
0.78479332 -0.36980668 1.7570001 4278518284
0.78410286 -0.36791238 1.748 4278452491
0.78743237 -0.36791238 1.748 4278386948
0.78669047 -0.36601812 1.7390001 4278518534
0.78636855 -0.36433432 1.7310001 4278452743
0.78966576 -0.36433432 1.7310001 4278321157
0.79296285 -0.36433432 1.7310001 4278255616
0.79626006 -0.36433432 1.7310001 4278255616
0.79955715 -0.36433432 1.7310001 4278321668
0.8028543 -0.36433432 1.7310001 4281348146
0.80615145 -0.36433432 1.7310001 4282597189
0.8524695 -0.38369811 1.8230001 4283978842
0.85594189 -0.38369811 1.8230001 4283716165
0.85470003 -0.38159335 1.8130001 4283847751
0.85815334 -0.38159335 1.8130001 4282661990
0.86160666 -0.38159335 1.8130001 4282201439
0.86506003 -0.38159335 1.8130001 4282333515
0.86420196 -0.37969905 1.8040001 4283057238
0.86763817 -0.37969905 1.8040001 4283452237
0.86624575 -0.37759429 1.794 4283715409
0.86966282 -0.37759429 1.794 4283453229
0.87308002 -0.37759429 1.794 4280163584
0.87649715 -0.37759429 1.794 4280423962
0.87991428 -0.37759429 1.794 4283713612
0.88333142 -0.37759429 1.794 4284044126
0.88674855 -0.37759429 1.794 4284899435
0.89016569 -0.37759429 1.794 4284964722
0.88910002 -0.3757 1.7850001 4284833136
0.87400001 -0.36791238 1.748 4285031271
0.86879718 -0.36433432 1.7310001 4285360236
0.87209433 -0.36433432 1.7310001 4285426027
0.87084007 -0.36244002 1.7220001 4285491820
0.87412006 -0.36244002 1.7220001 4285426029
0.87740004 -0.36244002 1.7220001 4285360236
0.88068002 -0.36244002 1.7220001 4285886060
0.88396007 -0.36244002 1.7220001 4286346611
0.88724005 -0.36244002 1.7220001 4286148212
0.8905201 -0.36244002 1.7220001 4285885040
0.89380002 -0.36244002 1.7220001 4284570452
0.89708006 -0.36244002 1.7220001 4278714880
0.90036005 -0.36244002 1.7220001 4278190082
0.90364009 -0.36244002 1.7220001 4278256132
0.90692002 -0.36244002 1.7220001 4278321675
0.91020006 -0.36244002 1.7220001 4278190089
0.91348004 -0.36244002 1.7220001 4278255880
0.92155147 -0.36433432 1.7310001 4278255880
-0.43606669 -0.4526 2.1700001 4281015093
-0.43193334 -0.4526 2.1700001 4281080886
-0.4278 -0.4526 2.1700001 4280754724
-0.42366666 -0.4526 2.1700001 4280886310
-0.41953334 -0.4526 2.1700001 4280820267
-0.4154 -0.4526 2.1700001 4280820267
-0.41126668 -0.4526 2.1700001 4280293923
-0.40713334 -0.4526 2.1700001 4280162337
-0.40300003 -0.4526 2.1700001 4279635993
-0.39886668 -0.4526 2.1700001 4279109649
-0.39473334 -0.4526 2.1700001 4279176196
-0.3906 -0.4526 2.1700001 4279176196
-0.38646668 -0.4526 2.1700001 4278978063
-0.24787432 -0.4413372 2.1160002 4281271296
-0.24234572 -0.43862575 2.1030002 4288047971
-0.23834002 -0.43862575 2.1030002 4292125599
-0.2343343 -0.43862575 2.1030002 4294362561
-0.23032859 -0.43862575 2.1030002 4293908956
-0.22492382 -0.43591431 2.0900002 4293645784
-0.22094287 -0.43591431 2.0900002 4291937739
-0.21696192 -0.43591431 2.0900002 4291871946
-0.21298097 -0.43591431 2.0900002 4290689476
-0.20900001 -0.43591431 2.0900002 4289768374
-0.20501906 -0.43591431 2.0900002 4286153881
-0.20103811 -0.43591431 2.0900002 4284574849
-0.19705716 -0.43591431 2.0900002 4283781731
-0.19307619 -0.43591431 2.0900002 4284242282
-0.18800953 -0.43341142 2.0780001 4285619020
-0.18405144 -0.43341142 2.0780001 4287066466
-0.17896667 -0.4307 2.0650001 4287725188
-0.17503333 -0.4307 2.0650001 4288383118
-0.17109999 -0.4307 2.0650001 4288055187
-0.16716668 -0.4307 2.0650001 4287792015
-0.16323334 -0.4307 2.0650001 4287791229
-0.1593 -0.4307 2.0650001 4287988608
-0.15536667 -0.4307 2.0650001 4288185217
-0.15143333 -0.4307 2.0650001 4287790459
-0.11131334 -0.41318002 1.9810001 4283991118
-0.10694286 -0.41088572 1.9700001 4285899115
-0.10319048 -0.41088572 1.9700001 4286097259
-0.099438109 -0.41088572 1.9700001 4286426224
-0.095151432 -0.40859145 1.9590001 4287148153
-0.091420002 -0.40859145 1.9590001 4287016567
-0.087688573 -0.40859145 1.9590001 4288067719
-0.07402572 -0.41568288 1.9930001 4288331400
-0.07022953 -0.41568288 1.9930001 4287673470
-0.06643334 -0.41568288 1.9930001 4288396431
-0.06263715 -0.41568288 1.9930001 4287409536
-0.058840957 -0.41568288 1.9930001 4287411066
-0.055044767 -0.41568288 1.9930001 4286950515
-0.05184 -0.42047998 2.016 4286819190
-0.047738098 -0.41818574 2.0050001 4286556018
-0.043656193 -0.41568288 1.9930001 4285964661
-0.039620001 -0.41318002 1.9810001 4285372524
-0.035846666 -0.41318002 1.9810001 4284584522
-0.032267623 -0.41568288 1.9930001 4284058178
-0.013286668 -0.41568288 1.9930001 4278730540
-0.0094904769 -0.41568288 1.9930001 4279322677
-0.0057600001 -0.42047998 2.016 4282721613
-0.0019200001 -0.42047998 2.016 4284169059
0.0019095239 -0.41818574 2.0050001 4286084397
0.005694286 -0.41568288 1.9930001 4283518470
0.0094904769 -0.41568288 1.9930001 4278460478
0.013366668 -0.41818574 2.0050001 4278986822
0.017185716 -0.41818574 2.0050001 4280819014
0.021004763 -0.41818574 2.0050001 4281147979
0.024675241 -0.41568288 1.9930001 4281017144
0.0283 -0.41318002 1.9810001 4281280316
0.032073334 -0.41318002 1.9810001 4280820546
0.035846666 -0.41318002 1.9810001 4281544269
0.039620001 -0.41318002 1.9810001 4281347642
0.051557146 -0.41818574 2.0050001 4279047245
0.055376194 -0.41818574 2.0050001 4280099374
0.059195239 -0.41818574 2.0050001 4281152062
0.063014284 -0.41818574 2.0050001 4281017673
0.067199998 -0.42047998 2.016 4281412431
0.071040004 -0.42047998 2.016 4283116897
0.074879996 -0.42047998 2.016 4283709034
0.078719996 -0.42047998 2.016 4284499035
0.082560003 -0.42047998 2.016 4284038484
0.086914286 -0.42298287 2.0280001 4284043856
0.090777144 -0.42298287 2.0280001 4283846477
0.094640009 -0.42298287 2.0280001 4283516764
0.098502867 -0.42298287 2.0280001 4283122006
0.10236572 -0.42298287 2.0280001 4283780182
0.10622858 -0.42298287 2.0280001 4284306526
0.11009143 -0.42298287 2.0280001 4283914591
0.11328 -0.42047998 2.016 4282138180
0.11712001 -0.42047998 2.016 4278392895
0.12096 -0.42047998 2.016 4278193460
0.12411906 -0.41818574 2.0050001 4279043615
0.12793811 -0.41818574 2.0050001 4278846236
0.13175714 -0.41818574 2.0050001 4278452741
0.1355762 -0.41818574 2.0050001 4278518534
0.13939524 -0.41818574 2.0050001 4278519045
0.1432143 -0.41818574 2.0050001 4278650631
0.14703333 -0.41818574 2.0050001 4278913033
0.15168001 -0.42047998 2.016 4279241998
0.15552001 -0.42047998 2.016 4279372317
0.42502001 -0.39274004 1.8830001 4278978063
0.42860669 -0.39274004 1.8830001 4279372821
0.43219337 -0.39274004 1.8830001 4278847760
0.43578002 -0.39274004 1.8830001 4278453002
0.43703336 -0.39065433 1.8730001 4278255616
0.44060099 -0.39065433 1.8730001 4278321408
0.4441686 -0.39065433 1.8730001 4278190080
0.44773623 -0.39065433 1.8730001 4278190080
