# .PCD v0.7 - Point Cloud Data file format
VERSION 0.7
FIELDS x y z
SIZE 4 4 4
TYPE F F F
COUNT 1 1 1
WIDTH 1194
HEIGHT 1
VIEWPOINT 0 0 0 1 0 0 0
POINTS 1194
DATA ascii
-0.19285454 0.3217608 0.74635088
-0.17026384 0.32263044 0.74568498
-0.13265093 0.32335818 0.74656266
-0.10966129 0.32387024 0.74668944
-0.063700669 0.32563671 0.74899983
-0.057066668 0.32627866 0.74900001
0.17454724 0.20841934 0.77800006
0.18523811 0.19412953 0.77800006
0.1716288 0.21655008 0.77783996
-0.21987401 0.29766533 0.7774418
-0.20653485 0.29832858 0.77728575
-0.2192006 0.30689496 0.76960248
-0.19552167 0.31028801 0.76265174
-0.1638702 0.31242916 0.76330233
-0.13596494 0.31311896 0.76332623
-0.10363211 0.31664315 0.76205409
-0.075670987 0.31861138 0.76297688
-0.044740032 0.32071185 0.76278347
-0.015919672 0.32138315 0.7660625
0.008405868 0.32442701 0.76281673
0.075292282 0.32486713 0.77332211
0.10407694 0.32671547 0.77324176
0.13429508 0.3275547 0.77415371
0.15727501 0.32735944 0.77579319
-0.010364127 0.33130878 0.75900012
0.011523809 0.33048001 0.75600004
0.07694263 0.33294398 0.7680102
0.10563935 0.33240822 0.76487941
0.13520321 0.33292574 0.76671481
0.1560473 0.33363667 0.77216339
0.40593487 0.051961124 0.80682856
0.40973499 0.076108769 0.80576205
0.42316297 0.079182833 0.80416405
0.23576573 0.11942381 0.80900002
0.24922638 0.11869866 0.80900002
0.41343197 0.10407982 0.80441707
0.42405647 0.105102 0.80245733
0.17404614 0.14672506 0.80644661
0.19712108 0.14180745 0.80329734
0.22465383 0.13571842 0.79967612
0.24532583 0.13088578 0.80411661
0.41503736 0.13258559 0.80587006
0.42371434 0.1337886 0.80482054
0.14584391 0.17482217 0.8069998
0.16635931 0.16640061 0.7996583
0.19409853 0.16407022 0.78897816
0.22088064 0.16196527 0.79480594
0.24056287 0.15140857 0.80700004
0.41990951 0.15024287 0.80900002
0.42433977 0.15120596 0.80900002
0.14064512 0.19651008 0.80375409
0.16460082 0.19473903 0.78900248
0.19251482 0.19340014 0.78598338
0.21485287 0.18901125 0.80349135
0.13789696 0.22569646 0.80034041
0.16182005 0.2250407 0.78443563
0.19012204 0.22277802 0.79716784
0.13737899 0.25475678 0.79812193
0.16192518 0.25371134 0.7896651
0.18503006 0.24274164 0.80514294
-0.25146469 0.2860359 0.79978156
-0.22612849 0.28851151 0.79421717
-0.19527788 0.29057366 0.79512274
-0.16569427 0.29247558 0.79534143
-0.13445851 0.29317266 0.79614371
-0.10658208 0.29379052 0.80057681
-0.074600674 0.29556012 0.79965925
-0.04592948 0.2955631 0.80215979
-0.026065057 0.29815122 0.79538471
0.039294288 0.29971525 0.80900007
0.13820237 0.28323799 0.80023885
0.15671001 0.28203374 0.79903686
-0.24180372 0.303518 0.78388888
-0.23624492 0.30386826 0.78086674
-0.18867069 0.30469531 0.78321427
-0.1663287 0.30130219 0.78031272
-0.13007171 0.30399802 0.78102338
-0.10462373 0.30502582 0.78401047
-0.07497742 0.30500451 0.78610039
-0.044879094 0.30820596 0.7881946
-0.017469246 0.30823201 0.78480703
0.027133631 0.3096922 0.80679309
0.046763849 0.31209952 0.79612225
0.075334735 0.31205824 0.79404974
0.10528649 0.31493533 0.79442614
0.13523039 0.31628564 0.7939809
0.16447146 0.31815335 0.7937035
0.18665709 0.31743172 0.80091745
0.055564914 0.33358195 0.78540009
0.062862419 0.33604443 0.78236848
0.16778915 0.33397621 0.78275007
0.35786733 0.019874668 0.83810014
0.37374526 0.020733086 0.82786387
0.39632308 0.023978233 0.81971633
0.35898319 0.042376738 0.833143
0.37499672 0.042255484 0.82311064
0.40040129 0.044161722 0.81332833
0.42043716 0.051102858 0.81300002
0.3996394 0.065979645 0.81312847
0.42094764 0.061018094 0.81100005
0.14762406 0.11805929 0.83900011
0.16848288 0.11366031 0.83529335
0.1951979 0.11001919 0.83069521
0.2254138 0.10812568 0.82615364
0.2548148 0.10547578 0.8237462
0.28070393 0.10325678 0.83226192
0.4070448 0.10349905 0.81100005
0.11555375 0.14623877 0.83842874
0.13692729 0.13706264 0.83255297
0.1641704 0.13394937 0.82173425
0.19301517 0.1277092 0.81620294
0.21692248 0.12278191 0.8137393
0.26122451 0.13651331 0.8240236
0.27463821 0.13071434 0.83389378
0.41409788 0.14547612 0.81119996
0.11044373 0.1677724 0.83447409
0.13397105 0.16369019 0.82039088
0.15466872 0.15518457 0.81270838
0.2338438 0.17413038 0.81613517
0.25321603 0.16244499 0.82784927
0.27314085 0.16483091 0.8372941
0.41521695 0.1665602 0.81696075
0.42479599 0.16651174 0.81406915
0.087495714 0.20575474 0.83900011
0.10616753 0.19554803 0.82863832
0.12642382 0.19308615 0.81526649
0.20684133 0.20900552 0.81220007
0.22547588 0.19322382 0.81769162
0.24160714 0.18267858 0.82500005
0.41437855 0.19485189 0.82775199
0.42320395 0.19456059 0.82365006
0.086654894 0.22107641 0.83837295
0.10480954 0.22504286 0.82655329
0.1227887 0.22404866 0.81284285
0.20343666 0.22739072 0.81366682
0.21309854 0.21406296 0.81776929
0.41580662 0.21623312 0.83725548
0.42357838 0.2169247 0.83596981
-0.30342177 0.26508445 0.83858341
-0.28382069 0.26325512 0.8323186
-0.25495622 0.26469254 0.83260167
-0.22595173 0.26484427 0.83251834
-0.20226787 0.26618561 0.83371454
-0.16547345 0.2668632 0.83429408
-0.13654099 0.26864746 0.83704019
-0.095055923 0.26918736 0.83871442
-0.088482857 0.26863715 0.83700001
0.088694289 0.24131238 0.83900005
0.10534951 0.25475052 0.82630491
0.12209883 0.25581068 0.81274271
0.17813794 0.26421657 0.81227279
0.18849394 0.25500891 0.81651956
-0.30267686 0.27100697 0.8372857
-0.27773142 0.27420798 0.81770438
-0.2555497 0.27407578 0.81701213
-0.22398663 0.27560359 0.81730473
-0.19519638 0.27610183 0.82030368
-0.1638083 0.27823076 0.82044971
-0.13569884 0.27790901 0.82229489
-0.10413071 0.28009209 0.82476884
-0.075932361 0.28340065 0.82408249
-0.053953804 0.28726494 0.81592119
-0.0044714576 0.28445938 0.83364719
0.01488994 0.29019305 0.82613963
0.044949532 0.29106352 0.82509208
0.074334763 0.29233363 0.82702339
0.10627231 0.2884458 0.82771897
0.12379057 0.28688461 0.81856084
0.17138118 0.28811321 0.81762516
0.19227161 0.2949225 0.83323729
0.21493855 0.29674852 0.83633345
0.019183494 0.30447966 0.81502783
0.050721593 0.30082175 0.8122223
0.074116252 0.30255696 0.81770253
0.10490523 0.30308214 0.81553614
0.13205568 0.30615193 0.81975478
0.16823195 0.30529159 0.81517982
0.19620529 0.30772573 0.81930566
0.21701926 0.30684164 0.82613719
0.017738901 0.3403964 0.82817483
0.039382745 0.34595281 0.82285625
-0.099087387 -0.0063415319 0.86719078
-0.084650867 -0.01042942 0.8673833
0.32715952 -0.0067738551 0.8683095
0.34281746 -0.0071358876 0.85869235
0.36090371 -0.0036988358 0.852
-0.12177473 0.014472905 0.86395007
-0.10508196 0.012791671 0.86390239
-0.087294392 0.0048695244 0.8674444
0.32477236 0.0074900161 0.86348575
0.34542277 0.013460075 0.85113984
0.37823361 0.0073533114 0.85163575
0.39190048 0.007331905 0.8555001
0.3569434 0.033252493 0.84244448
0.36085621 0.033682857 0.84200001
0.14318576 0.085650243 0.86616325
0.16657248 0.083273374 0.86235213
0.19500026 0.081617154 0.85925704
0.22518288 0.082213931 0.85681438
0.25456101 0.082253709 0.85622108
0.28359878 0.083848104 0.85668403
0.31009835 0.086017355 0.86371946
0.086381234 0.11745944 0.86676478
0.10788406 0.11036763 0.86274487
0.13509288 0.10520059 0.85412377
0.1633219 0.099964835 0.84798902
0.19469552 0.095236853 0.8449837
0.22310455 0.09323436 0.84281594
0.25266057 0.091483071 0.84166652
0.29053682 0.10201979 0.8438313
0.30997252 0.10161823 0.85855037
0.077803843 0.13694593 0.86258721
0.10430596 0.13421381 0.85065019
0.12580097 0.12580115 0.84404355
0.28767848 0.13620622 0.85200006
0.30423501 0.12815072 0.86640745
0.056018405 0.16962521 0.86768472
0.075173587 0.16515981 0.85529029
0.097412139 0.16153252 0.84454459
0.26992095 0.15458381 0.84100002
0.2774615 0.15334921 0.84805006
0.055768706 0.19491568 0.86575443
0.074920602 0.19468632 0.85022014
0.092398122 0.18757831 0.84235293
0.40928668 0.20904857 0.84100002
-0.33695284 0.23650996 0.8674522
-0.32223997 0.2381833 0.86679417
0.055689014 0.22445866 0.86453176
0.073225901 0.22530717 0.85037881
0.41264901 0.22820175 0.84430146
0.42435506 0.23154519 0.84375679
-0.33486664 0.24324895 0.86207151
-0.31345296 0.24933787 0.8553564
-0.28425977 0.25011382 0.85344905
-0.25550124 0.25054616 0.85387939
-0.22527693 0.25195536 0.85439867
-0.19445485 0.25530562 0.85493416
-0.16628137 0.25607988 0.85492986
-0.13432084 0.25891861 0.8532514
-0.10778619 0.26145834 0.85284179
-0.084223211 0.26780474 0.84552634
-0.038827967 0.26320288 0.86493504
-0.016812192 0.26466238 0.85964668
0.015182385 0.26629692 0.86256546
0.045262981 0.26458731 0.8639459
0.075759955 0.25319025 0.85153687
0.091296628 0.26316446 0.84146148
0.41233236 0.2548691 0.85738379
0.42167431 0.24962078 0.85023081
-0.18889137 0.27250412 0.84604001
-0.11175067 0.27334404 0.84381086
-0.083366357 0.27120286 0.8416667
-0.036916327 0.27271792 0.86071438
-0.01510145 0.27646035 0.84756017
0.016079228 0.27647844 0.84798968
0.044789534 0.27671844 0.85095906
0.075225711 0.27819186 0.85126215
0.099344254 0.28454399 0.8489306
0.1994309 0.28778791 0.84836763
0.21094888 0.2910921 0.84433341
0.25910532 0.29070708 0.86578172
0.27092126 0.28871709 0.8634119
0.41286588 0.2760275 0.86608428
0.42113099 0.27582547 0.86449999
0.018423485 0.32851562 0.84694296
0.02224322 0.33312184 0.84420836
0.031274285 0.33359146 0.84200001
-0.0084619913 -0.12077681 0.89709091
0.0051314291 -0.12058858 0.89800006
-0.035883404 -0.096363142 0.89472359
-0.014601558 -0.10414944 0.89493042
0.0022806351 -0.11602732 0.89800012
-0.063423812 -0.06342914 0.88560009
-0.043217812 -0.073468655 0.88612384
-0.021325313 -0.076181278 0.89164716
-0.09184064 -0.031546034 0.87933338
-0.071240559 -0.041793913 0.87915272
-0.046037886 -0.045986876 0.88486171
-0.028468745 -0.052589007 0.89600009
-0.099368058 -0.017010674 0.87247264
-0.072258815 -0.015794238 0.87721378
-0.052351844 -0.01797446 0.89193285
0.31621611 -0.01371366 0.88414061
-0.098405242 0.025662577 0.87365979
-0.076448597 0.014283734 0.88674605
-0.057749148 0.0032474287 0.89700001
0.31751382 0.016243117 0.89189523
0.33376244 0.023696193 0.89629418
-0.099405877 0.038141027 0.88191146
-0.083764769 0.039135758 0.89306831
0.1163124 0.058156192 0.89800012
0.13709646 0.056065328 0.89615262
0.16552107 0.055347219 0.89329505
0.1944223 0.055002701 0.89279515
0.22364692 0.056761973 0.89445883
0.24989516 0.057140727 0.89552808
0.31583437 0.046144545 0.88998377
0.33263826 0.048455723 0.88722187
0.056958862 0.089457907 0.89800006
0.077379011 0.079715893 0.8937121
0.10565449 0.07638377 0.88713527
0.13370198 0.07290186 0.88080853
0.16340046 0.06904868 0.87790185
0.19500485 0.066595487 0.87792301
0.22515787 0.066896997 0.87934947
0.25533655 0.067049921 0.88212526
0.28546268 0.071381837 0.88329107
0.31477174 0.071936943 0.88197577
0.33712476 0.077515252 0.88392991
0.048786648 0.10748408 0.89235681
0.074534282 0.10421649 0.88059163
0.10125998 0.097963296 0.87346983
0.12456684 0.091109365 0.87100023
0.32465401 0.10827346 0.87903333
0.33940399 0.10179906 0.88971275
0.02505862 0.13933869 0.89660859
0.04533302 0.13498913 0.88401574
0.065900415 0.12819389 0.87288564
0.29945812 0.14765525 0.87100005
0.31429002 0.13464896 0.87959224
0.33295226 0.12573816 0.89538884
0.023082299 0.16541071 0.8928197
0.042507917 0.16391969 0.87910205
0.060555242 0.15097335 0.87100005
0.29713544 0.15113924 0.87100011
0.30111715 0.15014382 0.87100005
0.022021605 0.1945934 0.89270198
0.040793311 0.19514132 0.87740332
-0.36869264 0.22096197 0.89368749
-0.34572911 0.22557364 0.8871991
-0.31376824 0.22930872 0.88397014
-0.28459293 0.23039167 0.88331741
-0.25508577 0.23272401 0.88452584
-0.22620878 0.23297137 0.88523006
-0.19624428 0.23434602 0.88657612
-0.16467994 0.23399313 0.89036649
-0.14500371 0.234862 0.89138013
-0.070163235 0.23888265 0.89753848
-0.04946338 0.23909697 0.89690924
-0.02671786 0.23854454 0.89775008
0.024982464 0.2210145 0.89194447
0.041161895 0.22479087 0.87896371
-0.35162288 0.24107429 0.87900007
-0.30380666 0.24184014 0.87187517
-0.29011017 0.24225344 0.87164712
-0.2542223 0.24128059 0.8712002
-0.22144556 0.24417783 0.87290615
-0.19368601 0.24250624 0.87284172
-0.16116436 0.24544068 0.87567139
-0.13648415 0.24571763 0.87676758
-0.11672968 0.24743363 0.87384224
-0.070563063 0.24794532 0.89242578
-0.0460038 0.2505056 0.88293856
-0.014261252 0.25088656 0.88435131
0.014108635 0.25347665 0.88426793
0.04463822 0.25463954 0.87921804
0.0650355 0.26441681 0.87645715
0.22933939 0.26667863 0.89471036
0.25404051 0.2666975 0.89362192
0.28338566 0.26694259 0.89466715
0.30252954 0.2680597 0.89733338
-0.050795875 0.27062702 0.87433338
0.23084587 0.27774918 0.88779014
0.25371715 0.27813983 0.87867123
0.2813037 0.27640119 0.88258415
0.30271846 0.27277735 0.89581823
0.40822545 0.28971902 0.87629282
0.40756094 0.31507841 0.88765144
0.42079279 0.30766895 0.88120002
0.40438923 0.3367185 0.89589548
0.046775945 -0.18704399 0.91990662
0.064917259 -0.1832208 0.92288458
0.022062533 -0.16013587 0.91326833
0.044252805 -0.16538511 0.91599548
0.064505778 -0.17532174 0.92537493
-0.0044739572 -0.1310143 0.90660036
0.015275741 -0.13497022 0.90673459
0.038241122 -0.13742021 0.91988921
0.30933332 -0.1210819 0.92800003
-0.0065028113 -0.097960316 0.90271431
0.013959855 -0.10583949 0.91350377
0.032551546 -0.11552536 0.92687523
0.29961145 -0.092800006 0.92800009
0.31014028 -0.10339962 0.92398959
-0.006826703 -0.072847225 0.90824252
0.0068858485 -0.077679016 0.92234123
0.29623064 -0.070764817 0.92551351
0.31017923 -0.074486278 0.91713434
-0.032711186 -0.034492698 0.90303719
-0.015722258 -0.045505214 0.9143489
0.0019867858 -0.057155598 0.92687505
0.29344741 -0.043969505 0.9223147
0.31298801 -0.044481773 0.9103936
0.33110166 -0.037180003 0.91385722
-0.038435344 -0.01273003 0.91007799
-0.023188857 -0.01900108 0.92235237
0.29112259 -0.014375307 0.91949725
0.30485174 -0.016194833 0.90602607
-0.064653791 0.022477336 0.90360016
-0.047245119 0.013943915 0.91611493
-0.029165715 0.0026514288 0.92800009
0.14494477 0.029165715 0.92800009
0.16085333 0.029165715 0.92800015
0.26956192 0.029165715 0.92800003
0.28741336 0.015650518 0.91686451
0.30497962 0.013005951 0.90210557
0.33551526 0.015874762 0.90100002
-0.091878191 0.055098951 0.90670007
-0.0716049 0.04705419 0.91063499
-0.054675937 0.039134275 0.92298687
0.048990972 0.053946391 0.92546827
0.076066099 0.04856712 0.91899115
0.10460622 0.045709465 0.91514641
0.13455811 0.0422934 0.91352302
0.16499738 0.040492412 0.91352504
0.19465677 0.041471448 0.91319036
0.224291 0.046151821 0.9135614
0.25744063 0.050050203 0.91584402
0.28529239 0.044917464 0.91327536
0.30267009 0.039190758 0.90190232
0.38227665 0.047863536 0.92287266
0.39265224 0.049150731 0.91950017
-0.074211672 0.065492868 0.92012489
0.019668633 0.079069614 0.92366451
0.045062885 0.074804142 0.91338909
0.070775814 0.067173153 0.90604287
0.097213484 0.062439851 0.90208006
0.28827786 0.063091017 0.90346944
0.30119142 0.062640958 0.90100002
0.38083726 0.069880649 0.92522329
0.39289528 0.067075759 0.92232162
-0.0061383392 0.10909811 0.92565995
0.014787787 0.10511116 0.91464955
0.036018651 0.099792808 0.90353864
0.35151258 0.11037403 0.90858924
0.36560497 0.10293232 0.92155552
-0.0099507067 0.13548961 0.92253017
0.011566186 0.13318422 0.90832168
0.32892638 0.14023493 0.90333337
0.34276366 0.13358781 0.91274393
0.36030957 0.12157144 0.92500007
-0.011384193 0.16503198 0.92021531
0.0079574976 0.16415487 0.90712881
-0.40021116 0.20167919 0.92181414
-0.3748796 0.20384032 0.91890383
-0.34599999 0.20495637 0.92010194
-0.31674317 0.2062065 0.92192656
-0.28228924 0.20752813 0.92383051
-0.25439131 0.20655908 0.92500007
-0.23239093 0.2072189 0.92512894
-0.18631403 0.20926942 0.92714292
-0.010763366 0.19510943 0.92051226
0.0069785411 0.19488704 0.90630871
-0.393217 0.21391864 0.91015786
-0.37564203 0.21167114 0.90440029
-0.34043366 0.21508984 0.90495741
-0.31431639 0.2150358 0.9070152
-0.28448975 0.21529594 0.90757936
-0.25578803 0.21723372 0.90754193
-0.2249312 0.21825989 0.90941948
-0.19425054 0.22012059 0.91203517
-0.17048009 0.22229181 0.90862131
-0.10179997 0.22767207 0.91941035
-0.074864313 0.23034367 0.91074991
-0.045479812 0.23067835 0.91257334
-0.014018823 0.23033543 0.91450435
0.010318263 0.22784784 0.91064632
-0.09289892 0.24338414 0.90671426
-0.086991787 0.24529371 0.90212494
-0.042634223 0.24167795 0.90307146
-0.0068647629 0.24112478 0.90100002
0.01872102 0.24345165 0.90384227
0.034144763 0.24572343 0.90472728
0.23448916 0.25842869 0.90541393
0.25636375 0.25544262 0.91492504
0.28541538 0.25650838 0.91550201
0.31386864 0.25777063 0.91643018
0.33554393 0.25581434 0.92490381
0.2183907 0.27839002 0.90178573
0.31296507 0.27182722 0.90431255
0.39743608 0.32548863 0.90242863
0.39996967 0.34883481 0.90728337
0.3865602 0.37102929 0.91817653
0.39968279 0.37367883 0.91904783
0.40026909 0.39290127 0.92518193
0.1445436 -0.2449773 0.95692664
0.15791917 -0.24365057 0.95166689
0.14282069 -0.22366446 0.95640689
0.16518775 -0.22436087 0.94976658
0.19234669 -0.2196441 0.94391805
0.21813287 -0.21346383 0.94546151
0.07351429 -0.18157144 0.93000007
0.13912463 -0.19453248 0.95655447
0.16545802 -0.19484422 0.94901347
0.19509614 -0.1956894 0.94657236
0.2242433 -0.1951222 0.9511351
0.24260391 -0.1982919 0.95158821
0.058294825 -0.15534616 0.93211108
0.074841626 -0.16423053 0.94350606
0.099990733 -0.16389565 0.95865685
0.13626611 -0.16509251 0.95461208
0.16496468 -0.16523094 0.95018828
0.19463843 -0.16544171 0.95059085
0.21999596 -0.16785479 0.95582741
0.28703052 -0.15846816 0.95092654
0.30538818 -0.15509194 0.93841183
0.052463379 -0.13275665 0.9377045
0.068201996 -0.13705233 0.95129639
0.11381686 -0.13356048 0.95899969
0.13578196 -0.13534768 0.95561892
0.16506734 -0.13512959 0.9523356
0.19348386 -0.13622908 0.95425975
0.21324492 -0.1412632 0.95799977
0.26943335 -0.13357501 0.95900005
0.28577605 -0.1351307 0.94822448
0.30886641 -0.13436449 0.9342804
0.026979627 -0.095715292 0.93310726
0.044557013 -0.10527276 0.9445852
0.063146405 -0.11399226 0.95755976
0.10680485 -0.10312719 0.95873201
0.13541599 -0.10511506 0.95641285
0.16470094 -0.10509242 0.95605111
0.18612973 -0.11349356 0.95857978
0.26721275 -0.10269501 0.95759982
0.28494975 -0.10532168 0.94242167
0.30419531 -0.11205715 0.93026114
0.021206206 -0.073487453 0.93890393
0.03750113 -0.077835277 0.95335042
0.0870988 -0.06733758 0.95899981
0.10510956 -0.074702293 0.95821869
0.13513336 -0.075001277 0.95756716
0.15910567 -0.079221167 0.9582867
0.26233965 -0.073686831 0.95327932
0.2823391 -0.076308638 0.93837118
-0.0031371433 -0.037088193 0.93333346
0.013520204 -0.045968063 0.94580334
0.031692248 -0.058035377 0.95857149
0.087451659 -0.045210008 0.95899975
0.10463508 -0.045938261 0.95838302
0.12970063 -0.049911864 0.95899975
0.25889418 -0.044240821 0.95078856
0.27899525 -0.046225835 0.93609673
-0.010577435 -0.013068844 0.93977207
0.0044763852 -0.024206841 0.94861543
0.10239482 -0.027907411 0.95900005
0.25757122 -0.014722751 0.94747049
0.27652684 -0.016270531 0.93329388
-0.034574557 0.021547996 0.93275476
-0.0190538 0.014512212 0.94423473
0.023065483 0.025214432 0.95711106
0.04594668 0.022561261 0.95304036
0.075441904 0.019093044 0.94799501
0.10495941 0.01854703 0.9442929
0.13442108 0.01916237 0.94250441
0.16503327 0.020169703 0.94344121
0.19408265 0.023267016 0.94459718
0.2287737 0.022242878 0.95385325
0.25496784 0.015178721 0.94335938
0.27351144 0.010309425 0.93110526
-0.042404495 0.046859067 0.9396531
-0.016186733 0.046246752 0.95539457
0.015595592 0.04559391 0.94702661
0.043536898 0.041105606 0.93736351
0.071640387 0.034216631 0.93352389
0.10780409 0.03125307 0.93000031
0.12754287 0.031000003 0.93000019
0.1798 0.031000003 0.93000007
0.19749002 0.031986978 0.93126684
0.22720116 0.034733515 0.94009686
0.25541407 0.038275745 0.93803018
-0.067837782 0.077936627 0.93836921
-0.045378596 0.074786931 0.94907248
-0.015104782 0.075057991 0.94388258
0.0088754287 0.070135243 0.93461114
0.37842879 0.082516722 0.93254614
0.39053401 0.082610801 0.93266672
-0.062719166 0.091911547 0.95787501
-0.044059642 0.10494799 0.95208162
-0.019481754 0.10304011 0.93594915
0.37928057 0.10472271 0.93712473
0.39354727 0.11381446 0.95329422
-0.044697639 0.13509205 0.94863909
-0.024986332 0.13323328 0.93367016
0.35473534 0.14342983 0.93540752
0.37093073 0.13384341 0.94637781
-0.43211117 0.17621423 0.95474994
-0.40952682 0.17857854 0.95749992
-0.37240663 0.17918374 0.95828557
-0.043768004 0.16486168 0.94766337
-0.02649896 0.16425768 0.93228978
0.35567924 0.15617709 0.94938087
0.36334553 0.15664235 0.95323092
-0.42791092 0.18692803 0.94362313
-0.40535584 0.18797053 0.94224674
-0.37471133 0.18916176 0.94248295
-0.34500521 0.19111463 0.94455707
-0.3134951 0.19310346 0.94196945
-0.28560686 0.19517702 0.94222313
-0.2559132 0.19556324 0.94299942
-0.22448422 0.1986663 0.94389027
-0.19979563 0.20384587 0.93640161
-0.15371227 0.1998468 0.95625925
-0.13560498 0.20316131 0.94931692
-0.10473613 0.20624591 0.94729447
-0.076080419 0.20609815 0.95255482
-0.043435033 0.19543557 0.95016026
-0.02585618 0.19324045 0.93495828
-0.22074902 0.21304294 0.93300015
-0.20105715 0.21168573 0.93000007
-0.12925944 0.21681917 0.9402073
-0.1045725 0.21479434 0.93522412
-0.075863853 0.21734218 0.9386133
-0.044097714 0.21652587 0.93852788
-0.017613683 0.22056267 0.93548483
0.26278621 0.23506318 0.9423635
0.28418666 0.23253801 0.95241821
0.31441757 0.23543338 0.9508757
0.34477419 0.23596069 0.95522684
0.36631247 0.23686087 0.95670354
-0.14093482 0.25417614 0.9586314
0.25586274 0.24354202 0.93230641
0.28676939 0.24437951 0.93898129
0.31412005 0.24439138 0.93626964
0.34509134 0.2459749 0.94134754
0.36559883 0.24403527 0.95083332
0.39419192 0.3858299 0.93358827
0.38897672 0.41094634 0.95000011
0.39551282 0.40448117 0.93883204
0.38796002 0.4206686 0.95400006
0.10455143 -0.27032667 0.98900002
0.10957391 -0.25336605 0.98249727
0.13047098 -0.25165081 0.96779573
0.087654747 -0.21479219 0.98841184
0.10564684 -0.22447757 0.97733665
0.12791103 -0.22627802 0.96486026
0.086423971 -0.19638985 0.98400009
0.10490269 -0.19532417 0.97066236
0.12378289 -0.19702791 0.96316504
0.23912573 -0.18048953 0.96200007
0.25572559 -0.18982728 0.96651626
0.27665007 -0.18587212 0.97979152
0.087043509 -0.15371358 0.96340007
0.10528203 -0.16484948 0.96411014
0.12138046 -0.16736731 0.96199995
0.23237711 -0.16077204 0.96417934
0.2557773 -0.16451365 0.97166878
0.27407086 -0.1660217 0.96916699
0.082474053 -0.1326308 0.96607763
0.10107946 -0.13549118 0.96407712
0.2057357 -0.12402507 0.96199995
0.22603929 -0.13380794 0.96800601
0.25470087 -0.13471435 0.97182071
0.27145079 -0.13789755 0.96226668
0.057424761 -0.095803164 0.96341681
0.076595269 -0.10430895 0.96758473
0.10032951 -0.10931322 0.96280384
0.17723198 -0.093756832 0.96200001
0.19666913 -0.10288881 0.9641012
0.22539513 -0.1046526 0.97541142
0.25275397 -0.10527165 0.96909744
0.050729822 -0.072489716 0.96772271
0.073292948 -0.07584627 0.96739483
0.090702862 -0.0870381 0.96200007
0.17024815 -0.070992872 0.96298414
0.19463566 -0.075007759 0.97027355
0.22533654 -0.074443869 0.97897053
0.24749507 -0.076090001 0.96764243
0.028233543 -0.041436121 0.97435725
0.045134753 -0.044627871 0.974244
0.073194817 -0.044911854 0.96580708
0.10774402 -0.034876317 0.96200001
0.14023095 -0.040449686 0.96268898
0.16486679 -0.045105208 0.96696597
0.19499323 -0.045121629 0.98047024
0.22505607 -0.044543169 0.97615933
0.24418734 -0.04686977 0.96407616
-0.0018838095 -0.00094190479 0.98900002
0.01847033 -0.0039113956 0.98650831
0.046969734 -0.011174678 0.98190677
0.075426184 -0.014755468 0.97748786
0.10478259 -0.014290626 0.97448623
0.13311188 -0.015639329 0.97532803
0.16290699 -0.019611672 0.97887051
0.18811059 -0.02358838 0.98574996
0.22578727 -0.015384338 0.97045636
0.24286842 -0.016071284 0.96231157
-0.0042456463 0.016803736 0.97259444
0.013321487 0.01287458 0.97204238
0.043521907 0.0078073563 0.96770102
0.073305242 0.0038526382 0.9662841
0.10495259 0.0033859126 0.96493161
0.13555093 0.0044913692 0.96625388
0.16482113 0.006016558 0.97145182
0.19519103 0.009654467 0.97775483
0.22388111 0.010564712 0.96591824
-0.0075965002 0.035148691 0.96225798
0.0035629633 0.03125228 0.96200001
-0.091364756 0.086655237 0.98900002
-0.08295916 0.086322352 0.98372746
-0.092794918 0.10597746 0.9887948
-0.075834982 0.10570796 0.9769401
-0.058724754 0.1062428 0.96404022
0.40028954 0.11843429 0.96400005
-0.092620656 0.1358436 0.98900002
-0.075162642 0.1350769 0.97414339
-0.059583336 0.12649906 0.96250004
0.38452128 0.1406346 0.96751851
0.39784354 0.13415398 0.9752757
-0.48131329 0.16389142 0.98899996
-0.46188822 0.16325127 0.97932696
-0.43504852 0.16557878 0.97520888
-0.40463784 0.16804333 0.97383446
-0.37558007 0.17014666 0.97497022
-0.34465069 0.1709998 0.97592175
-0.3162491 0.17178144 0.97797751
-0.2844443 0.17408961 0.97800738
-0.25671947 0.1728074 0.97756183
-0.23704845 0.17760848 0.97512507
-0.18530712 0.17777978 0.9876669
-0.16768871 0.17696324 0.98662513
-0.13138108 0.17913368 0.98800015
-0.095603324 0.16459787 0.98899996
-0.073460728 0.16294447 0.9751842
-0.058993172 0.16659245 0.9628334
0.35554874 0.16439122 0.97650003
0.37300766 0.16561553 0.97315091
0.39445317 0.15278381 0.98660004
-0.40495622 0.18048953 0.96200007
-0.37380576 0.18048953 0.96200007
-0.34184405 0.18126868 0.96208328
-0.31551984 0.18185781 0.96410668
-0.28632751 0.18260397 0.96419364
-0.25310364 0.18482593 0.96424955
-0.23227687 0.18560567 0.96474642
-0.18477589 0.18725002 0.98570591
-0.16503598 0.18904936 0.97402287
-0.13348305 0.1896863 0.97182649
-0.1053555 0.19275934 0.97495413
-0.074047849 0.19340496 0.97335738
-0.050513402 0.19875461 0.96525532
-0.15915488 0.23120157 0.97826767
-0.14038725 0.23416328 0.97602499
-0.11398001 0.21035334 0.97300005
-0.039478097 0.21024382 0.96400005
0.29105121 0.22089487 0.96872628
0.31598517 0.2218273 0.97709149
0.34168115 0.22429661 0.97254157
0.36379984 0.23039123 0.96668178
0.40512767 0.22506748 0.9882437
-0.15639868 0.24392809 0.96756768
-0.13180988 0.25108033 0.96866304
-0.11804572 0.25870425 0.98296553
-0.1256572 0.27348769 0.98404568
-0.11664991 0.2731998 0.98838472
0.087925151 -0.27309203 1.0190001
0.094654195 -0.27365184 1.0126842
0.084622107 -0.25303802 1.0139285
0.095531277 -0.25761807 1.0000261
0.078668997 -0.22420564 1.0046576
0.091337465 -0.23412642 0.99419999
0.076884575 -0.20324546 0.99590033
0.28947484 -0.18326327 0.99274993
0.29038 -0.17828777 0.99500006
0.024471151 -0.033568405 1.0138824
0.032963049 -0.03219695 1.0004001
0.20532827 -0.032436825 0.99200004
-0.0009461905 -0.0037861909 0.99350005
0.016173426 -0.017534798 1.0021436
0.042715587 -0.020737199 0.99690616
0.06329906 -0.019840002 0.99199998
0.14474209 -0.011434191 0.99248409
0.16616078 -0.010625088 0.99802494
0.19471206 -0.015664313 1.0043871
0.21261303 -0.02043557 1.0062175
0.17856 0.00094476191 0.99200004
0.18571199 0.0012167346 0.99414289
-0.12195651 0.058552068 1.0190001
-0.11414341 0.056988321 1.0142633
-0.12328392 0.075764805 1.0172505
-0.10687946 0.076295212 1.0048845
-0.089122549 0.078730166 0.99200004
-0.12286416 0.10432266 1.0161337
-0.10713782 0.10471582 1.0012953
-0.51313615 0.14173822 1.0152502
-0.49443895 0.14173763 1.0111797
-0.46523342 0.14402239 1.0104746
-0.43728945 0.14445145 1.0126877
-0.405099 0.14510188 1.0131351
-0.37597433 0.14602053 1.0150771
-0.34641272 0.14671208 1.016403
-0.3153083 0.1479322 1.0168403
-0.2939958 0.14837265 1.01825
-0.12262399 0.13163991 1.016086
-0.10725243 0.13493052 1.0036857
0.41036361 0.14659119 0.99625003
-0.49223819 0.15982758 1.0003752
-0.46437058 0.15184303 0.99623913
-0.43578428 0.15435335 0.99656636
-0.40451133 0.15434238 0.99846178
-0.37381542 0.1565332 1.0000843
-0.34484819 0.15630937 1.0008801
-0.3141489 0.15780166 1.0027349
-0.28655201 0.15980488 1.0011365
-0.26677844 0.16258794 0.99449992
-0.21875045 0.15881529 1.0159447
-0.19454454 0.16651829 1.005533
-0.16446406 0.16750264 1.0072166
-0.13579844 0.17066023 1.0064608
-0.10489235 0.16757984 1.0043057
-0.084982865 0.17479491 0.99745458
0.35665911 0.1723994 1.0020911
0.37894019 0.1770656 0.99885726
0.40357739 0.16490406 1.0026698
-0.19447772 0.18482596 0.99524999
-0.15215842 0.18239969 0.99233341
-0.1467156 0.18220916 0.99387503
-0.10425182 0.18113144 0.99500036
-0.081359066 0.18412083 0.99670255
0.31765199 0.20559376 1.0001308
0.35427621 0.20648552 1.0153333
0.37772709 0.19837652 1.0107405
0.40214756 0.20046464 1.0126038
0.43356425 0.20633622 1.0147618
0.29755241 0.21321429 0.99500006
0.31265938 0.2114218 0.99549985
0.34021571 0.21143691 1.0025001
0.38229361 0.21918888 1.0048789
0.40199971 0.21722801 0.99800032
0.42957744 0.21657841 1.0034442
-0.1239358 0.28390199 0.99975014
-0.11556126 0.28294307 1.0005909
0.08323092 -0.27432996 1.0268236
0.076214887 -0.25405774 1.0271957
0.058325719 -0.22341716 1.0380001
0.06547422 -0.22667873 1.0277188
-0.13461429 -0.0089742858 1.0470001
0.19692722 -0.010704948 1.0282694
-0.15298906 0.026742857 1.0465
-0.14736715 0.027380003 1.0455
-0.15482715 0.04366181 1.0453812
-0.13782328 0.048167553 1.0329181
-0.15795615 0.07582844 1.0437958
-0.1381935 0.074905187 1.0274909
-0.5445894 0.11682292 1.0418125
-0.53047591 0.11731646 1.0418814
-0.4836143 0.11866 1.0470002
-0.47563717 0.11866 1.0470001
-0.15709805 0.10359591 1.0436362
-0.13775954 0.10504662 1.0274911
-0.54102951 0.12372001 1.031
-0.52399248 0.1282623 1.0298235
-0.49402308 0.12756929 1.0321865
-0.46644938 0.12919703 1.033214
-0.43486148 0.13208787 1.0314207
-0.40471423 0.13288409 1.0336881
-0.37619734 0.13463624 1.0342681
-0.34426776 0.13629089 1.0350807
-0.31798628 0.13724977 1.0308543
-0.29539606 0.14570852 1.0250002
-0.24883084 0.14423417 1.0437324
-0.22607771 0.14506151 1.0351762
-0.19589384 0.14574404 1.0402077
-0.16347949 0.14124195 1.0419352
-0.13602321 0.13356291 1.0300789
-0.29492 0.15086669 1.0220001
-0.24885558 0.15322168 1.0434446
-0.2254412 0.15305574 1.0246841
-0.19319607 0.1536971 1.0264809
-0.16424802 0.15417126 1.0285406
-0.13501202 0.15650944 1.0301019
-0.11372425 0.16287445 1.0233123
0.35926718 0.17646238 1.0265
0.36028668 0.17916572 1.0280001
0.41472039 0.17699651 1.0230001
0.35021424 0.19533418 1.031601
0.371052 0.19183865 1.029303
0.41178811 0.19453913 1.0263678
0.43535179 0.1944242 1.0344003
0.46156549 0.19674678 1.0364341
0.48433957 0.19426158 1.0470001
0.35137334 0.21121335 1.0220001
0.3640267 0.21121335 1.0220001
0.45392859 0.21183334 1.0250001
-0.10204039 -0.06141641 1.0758235
-0.15395541 -0.035748076 1.0752857
-0.13408503 -0.040731423 1.0726886
-0.11040262 -0.049225703 1.0723847
-0.18302676 -0.0044935532 1.0754615
-0.16368146 -0.013565976 1.0692528
-0.13897388 -0.018297292 1.0611411
-0.11889429 -0.029469524 1.067
0.20655558 -0.0087777786 1.0500001
0.21224628 -0.008063619 1.0582001
-0.18767259 0.017441876 1.0735215
-0.1656768 0.014550974 1.0593201
-0.14808585 0.0047627944 1.0568002
-0.18997736 0.045538615 1.0715387
-0.16987658 0.045429196 1.0562412
-0.60004282 0.087185711 1.077
-0.5872587 0.088094786 1.0761304
-0.56004 0.089237146 1.077
-0.18961667 0.074929044 1.0704527
-0.17250447 0.074111998 1.0551827
-0.58071816 0.097350881 1.0703145
-0.55532235 0.10273433 1.0640616
-0.52372319 0.10698088 1.0631022
-0.4951973 0.10792405 1.0638478
-0.46514142 0.11079583 1.0654128
-0.43427259 0.11080743 1.0657645
-0.40601823 0.11240315 1.0669072
-0.37606812 0.11410431 1.0688354
-0.35210866 0.11362872 1.0633045
-0.27842936 0.11626723 1.0733429
-0.25913715 0.11855927 1.0754999
-0.22340453 0.1186453 1.0752859
-0.18879814 0.10111725 1.0706822
-0.17153554 0.10611246 1.055702
-0.5150001 0.12133335 1.0500002
-0.50500005 0.12100001 1.0500001
-0.46700004 0.12100001 1.0500001
-0.43505347 0.12245679 1.0514115
-0.40587622 0.12292693 1.0510999
-0.37176654 0.12437374 1.0557463
-0.34858134 0.12532125 1.0545075
-0.27810213 0.12967277 1.0621533
-0.25597939 0.1303076 1.0611582
-0.22417477 0.13084573 1.061545
-0.1955069 0.13171047 1.0634284
-0.16672853 0.13402349 1.0588944
-0.1474573 0.14462101 1.0524118
0.44405121 0.17608869 1.0675999
0.46421453 0.17534092 1.0689254
0.49664381 0.17525484 1.0730007
0.51349247 0.17439729 1.0733333
0.34966666 0.1863524 1.052
0.44079906 0.18254937 1.0540285
0.4664689 0.18464863 1.0552441
0.49246496 0.18565297 1.0587765
0.51195681 0.183524 1.067
-0.095323175 -0.092157468 1.108
-0.082974076 -0.092702419 1.1070769
-0.1825562 -0.062259048 1.108
-0.16323979 -0.068914801 1.1030943
-0.13431473 -0.07242199 1.0975795
-0.10480623 -0.076011814 1.0934142
-0.083950475 -0.08215829 1.099146
-0.21379125 -0.031446096 1.108
-0.19286107 -0.042523049 1.1004761
-0.16629402 -0.04691596 1.0896211
-0.13610598 -0.05511862 1.0837007
-0.11725715 -0.05862857 1.08
-0.21937352 -0.012742627 1.1035984
-0.1963912 -0.015341356 1.0906705
-0.17435946 -0.025681838 1.0815171
-0.27204037 0.022582095 1.108
-0.26803046 0.021104764 1.108
-0.22220349 0.015056137 1.0987496
-0.20134515 0.012683963 1.0846845
-0.22274788 0.044579335 1.0968323
-0.2045697 0.044305388 1.0837969
-0.631908 0.069038726 1.1040001
-0.61438996 0.075635068 1.0995888
-0.58543813 0.079856105 1.0953088
-0.5566377 0.081909314 1.0975121
-0.52603441 0.085398629 1.1014049
-0.49429226 0.085111514 1.1025721
-0.46633574 0.084747784 1.103899
-0.43650895 0.08822944 1.1064
-0.40713999 0.086385906 1.1056305
-0.38902003 0.089128576 1.1010001
-0.22053064 0.074310496 1.096118
-0.20383511 0.074561328 1.0830325
-0.54691195 0.09257251 1.0821764
-0.52617443 0.09276592 1.0851351
-0.49345544 0.093680702 1.086045
-0.46529698 0.095605738 1.0870771
-0.43584263 0.095506191 1.0890118
-0.40391433 0.098229326 1.089659
-0.37916273 0.10114057 1.0869765
-0.33240005 0.098559238 1.1079999
-0.31276354 0.10392464 1.0960349
-0.28524768 0.10576448 1.0923079
-0.25500879 0.10938226 1.0943799
-0.22501701 0.10982945 1.0946028
-0.20219965 0.10921327 1.0878315
-0.30260724 0.12201703 1.0844287
-0.29573604 0.12294745 1.0812
-0.25302857 0.12034287 1.08
-0.23245715 0.12034287 1.08
-0.18729988 0.12212002 1.0814285
0.46857792 0.14808086 1.103857
0.44784287 0.16986954 1.0810001
0.46726674 0.16189098 1.0937824
0.49205261 0.16211739 1.0892001
-0.19047508 -0.095109902 1.1341
-0.16324738 -0.099337213 1.1293023
-0.13506599 -0.1017044 1.1265479
-0.10538187 -0.10454613 1.1255814
-0.076925978 -0.10546026 1.1265912
-0.21822745 -0.069064587 1.1283711
-0.19500579 -0.074911252 1.1198536
-0.16716446 -0.082537226 1.1143683
-0.13999359 -0.086507551 1.112923
-0.24347146 -0.044199504 1.1294117
-0.22477931 -0.044807196 1.1194586
-0.20468582 -0.052994438 1.1128438
-0.24759272 -0.01314739 1.1232913
-0.2326376 -0.017595263 1.1139443
-0.27177361 0.026261192 1.11475
-0.25492087 0.015849799 1.1242226
-0.23742205 0.012269206 1.1125
-0.64377123 0.052136026 1.1319354
-0.61660212 0.054903366 1.1317977
-0.585711 0.054899488 1.1333685
-0.55589187 0.057910383 1.1362859
-0.52590263 0.059227005 1.1380002
-0.50505525 0.059609525 1.138
-0.27233028 0.039763659 1.1302397
-0.2543278 0.04434935 1.1238148
-0.23786214 0.047021724 1.1120002
-0.63820034 0.062678158 1.1175263
-0.61524606 0.064320117 1.1172878
-0.58521438 0.066073962 1.1186987
-0.5529269 0.068482518 1.1230565
-0.52448142 0.07067778 1.1238314
-0.49533111 0.070783973 1.1250757
-0.46416822 0.072241753 1.1238924
-0.43605202 0.075467743 1.1212031
-0.41570666 0.0787903 1.1199628
-0.36325422 0.077235498 1.1336364
-0.34530446 0.080803439 1.1248224
-0.31553215 0.082993664 1.1240106
-0.28628057 0.084731556 1.1301737
-0.25242078 0.075880133 1.1261863
-0.23652494 0.074997634 1.1142572
-0.33917099 0.093117788 1.1128927
-0.31246001 0.091612436 1.1128749
-0.28456631 0.093354829 1.1156417
-0.25484362 0.095336832 1.1158313
-0.22755706 0.09871237 1.1163145
-0.33824641 0.13215354 1.1287471
-0.31627181 0.13891241 1.1200454
0.47009602 0.14501767 1.1133529
0.52847272 0.14398961 1.1332598
0.54618108 0.14464431 1.1288126
-0.30792385 0.1588504 1.1251111
-0.29618967 0.15560408 1.138
0.52698272 0.15564136 1.1252706
0.54813921 0.15830249 1.1203943
-0.15797697 -0.12617944 1.1529
-0.13702016 -0.12924172 1.159
-0.10624798 -0.12702961 1.1576196
-0.076524548 -0.12595858 1.1619999
-0.057499051 -0.12384381 1.161
-0.18758422 -0.10552715 1.1422501
-0.16748306 -0.11357202 1.1427228
-0.13540132 -0.11733824 1.1438389
-0.11094 -0.11827881 1.1420001
-0.073627785 -0.11809454 1.1467394
-0.057466984 -0.11896032 1.1530001
-0.24289557 -0.062084772 1.1436667
-0.23496023 -0.065072626 1.1435001
-0.24323583 -0.058090866 1.1422001
-0.23798001 -0.059766669 1.141
-0.66710031 0.027795842 1.1675266
-0.64717501 0.02824305 1.1676002
-0.61943936 0.028839773 1.1669052
-0.59692383 0.029957144 1.1650001
-0.66503316 0.034621805 1.1574212
-0.64495254 0.03857436 1.1565478
-0.61402911 0.040521841 1.1531579
-0.58555937 0.042392537 1.1557564
-0.55500984 0.047231387 1.1574479
-0.52548319 0.048182636 1.1563436
-0.49459693 0.050608609 1.1569079
-0.46786734 0.052998789 1.1524999
-0.44385096 0.05608904 1.143667
-0.39412001 0.056779999 1.169
-0.3751846 0.056204252 1.1655451
-0.3436479 0.057294037 1.1653749
-0.31675205 0.058151077 1.1680912
-0.28100517 0.054918014 1.1536061
-0.26840669 0.057593338 1.141
-0.46569702 0.062422965 1.141
-0.44444665 0.062754996 1.1409999
-0.39479053 0.065624237 1.1636666
-0.37513709 0.068355769 1.1512396
-0.34414786 0.067054518 1.1501087
-0.31513667 0.068673126 1.152724
-0.28554305 0.070859738 1.1525552
-0.26300493 0.076659642 1.1436667
0.49606955 0.11880858 1.1690001
0.51646852 0.11840539 1.1667778
0.47877428 0.12715715 1.161
0.49653864 0.13433731 1.1526554
0.52294707 0.13069677 1.1517764
0.55372268 0.12938015 1.1572052
0.57271278 0.12788476 1.1676668
-0.30329442 0.17358072 1.141
-0.29266778 0.17040299 1.1497999
0.50261414 0.15294772 1.1411821
0.51268929 0.15365468 1.141
-0.30279559 0.18335399 1.1436667
-0.2920351 0.18608074 1.1572403
-0.09941031 -0.15217134 1.1948181
-0.12727919 -0.14126784 1.1766845
-0.10327761 -0.14125901 1.1809473
-0.075625442 -0.13801768 1.1830307
-0.057752706 -0.13003652 1.1736668
-0.67390645 0.014625024 1.1858791
-0.64445496 0.018322997 1.185518
-0.61534804 0.02026877 1.1884458
-0.58641082 0.02262803 1.1895517
-0.5549404 0.024426118 1.1907419
-0.52314126 0.025418339 1.1925901
-0.50208777 0.023961743 1.1870691
-0.63900578 0.03016286 1.1730001
-0.58110595 0.033022173 1.1764287
-0.55539882 0.033310171 1.176915
-0.52309221 0.034894433 1.178879
-0.49902755 0.035676979 1.1775717
-0.42796588 0.042791698 1.1911533
-0.4063721 0.04562562 1.1831423
-0.3748382 0.045460638 1.1799492
-0.34603959 0.047018066 1.1830993
-0.31497115 0.048773348 1.1836905
-0.29581085 0.05007245 1.1858572
-0.42011338 0.066810481 1.189
-0.41154346 0.068250313 1.1825293
0.50246608 0.11276265 1.1828249
0.52400118 0.10956962 1.1852071
0.55388796 0.11186509 1.1850357
0.5714258 0.11472541 1.1850002
0.64855504 0.11457271 1.1920345
0.53622866 0.12176858 1.1730001
0.55745429 0.12176858 1.1730001
0.57137907 0.12034953 1.1810001
0.6449551 0.12258716 1.1863335
-0.095033333 -0.15710637 1.207
-0.083554991 -0.1538402 1.2108668
-0.058238097 -0.15025429 1.223
-0.070938349 -0.14611107 1.2146
-0.057455625 -0.14527354 1.2262001
-0.69491231 -0.0041787671 1.2202942
-0.67460996 -0.0059307413 1.219115
-0.64337248 -0.0032946113 1.221229
-0.61867255 -0.0028054665 1.2227036
-0.54689145 -0.0011685715 1.2270001
-0.69200861 0.0017257143 1.2090001
-0.67286354 0.0049219737 1.2074997
-0.6434387 0.0049181618 1.2070713
-0.61393821 0.006019365 1.2115381
-0.58510828 0.0097919544 1.2140768
-0.55380112 0.011134352 1.2160689
-0.53035825 0.014561664 1.2098874
-0.48502085 0.014406986 1.2266668
-0.4626779 0.017305914 1.2168386
-0.43579417 0.021168999 1.2146062
-0.40416223 0.020979134 1.2158478
-0.37673244 0.023468031 1.2193244
-0.34476683 0.024176471 1.2220784
-0.31725097 0.024878744 1.2215003
-0.45483431 0.032160003 1.2060001
-0.44225311 0.034489639 1.2024704
-0.40065047 0.032690074 1.2044284
-0.37412012 0.034227528 1.2055104
-0.34463653 0.034520376 1.2046416
-0.31549621 0.035514109 1.2080309
-0.29720509 0.038340956 1.2079999
0.53348416 0.085307099 1.2244399
0.55243045 0.086599372 1.2246751
0.50850326 0.10234171 1.202
0.52697814 0.09577433 1.2076744
0.5510658 0.097089112 1.2114775
0.65270132 0.10538264 1.2042222
0.67098504 0.10896618 1.2156668
0.66281712 0.1202 1.202
-0.054826967 -0.14117365 1.2329234
-0.69709045 -0.011081482 1.2320002
-0.66704589 -0.012589843 1.2350303
-0.64618313 -0.017686855 1.2439344
-0.56105715 -0.0052527748 1.2364485
-0.57896614 0.0029356193 1.2336001
-0.56750226 0.002737778 1.2320001
-0.4887948 0.0053586015 1.2350311
-0.46437639 0.0045269052 1.2379804
-0.43450549 0.006580913 1.2389853
-0.4053981 0.0058746696 1.2441804
-0.37426803 0.0094304187 1.243495
-0.3454515 0.0095522106 1.2440095
-0.31418815 0.012124788 1.2455702
0.54560006 0.08330667 1.2320001
0.67922217 0.097379863 1.2435814
0.69098294 0.096525721 1.2360001
