# .PCD v0.7 - Point Cloud Data file format
VERSION 0.7
FIELDS x y z
SIZE 4 4 4
TYPE F F F
COUNT 1 1 1
WIDTH 256
HEIGHT 1
VIEWPOINT 0 0 0 1 0 0 0
POINTS 256
DATA ascii
-0.61697209 -0.012714219 1.2466699
-0.58539581 -0.011642761 1.2462918
-0.51199335 -0.0023980953 1.2590001
-0.49257666 -0.0063013211 1.2504911
-0.46643835 -0.0052312822 1.252638
-0.43539521 -0.0056755194 1.2545556
-0.40886644 -0.0019501253 1.2547895
-0.37200451 -0.0017985716 1.2590001
-0.35222024 -0.0014988097 1.2589999
-0.2984367 0.012605778 1.2511334
-0.51295257 0.039088953 1.2590001
-0.49369681 0.045157533 1.2572951
-0.47708777 0.037969843 1.2589999
0.6773383 0.084575839 1.252
0.69612217 0.083277658 1.2506
-0.63658261 -0.033869565 1.2694999
-0.61951846 -0.0352064 1.2784923
-0.59616131 -0.033410791 1.268
-0.54586667 -0.031484447 1.2880001
-0.53222001 -0.032660004 1.2880001
-0.48289785 -0.031484447 1.2880001
-0.47840002 -0.031893335 1.2880001
-0.63647139 -0.026999731 1.2640002
-0.61461705 -0.024633853 1.2688332
-0.59588575 -0.025681272 1.2640001
-0.54656768 -0.025935238 1.2880001
-0.52215636 -0.018793855 1.275183
-0.49610764 -0.019512463 1.2789097
-0.46654132 -0.017788071 1.2761083
-0.43433282 -0.014198523 1.2748299
-0.40426126 -0.012255739 1.274196
-0.37619099 -0.011279684 1.2754942
-0.34401351 -0.0086986125 1.2772571
-0.31866232 -0.0078630997 1.2755371
-0.51592326 0.026782598 1.2729999
-0.50097883 0.025602669 1.2740002
-0.33104762 0.0012038095 1.2640001
-0.31653163 0.0023537418 1.2659999
-0.51634067 0.032833572 1.26525
-0.49325693 0.037115335 1.2665778
-0.47464147 0.05192313 1.2736399
-0.48130572 0.06757132 1.2687777
-0.47159392 0.068010032 1.2808198
0.68151253 0.070145875 1.2776275
0.70035309 0.069490008 1.2738954
0.72005343 0.06256 1.2880001
-0.57320857 -0.061460003 1.3170002
-0.57659793 -0.050347917 1.3121284
-0.5542447 -0.044464037 1.301264
-0.52522749 -0.043120354 1.3040268
-0.49513242 -0.042351864 1.3045458
-0.46623001 -0.037554786 1.3054175
-0.43673787 -0.03744429 1.3051435
-0.40544122 -0.034485772 1.3103336
-0.37448263 -0.034391608 1.3136221
-0.35398158 -0.034155328 1.3098571
-0.54017907 -0.014765715 1.2920001
-0.51146793 -0.027480638 1.2920001
-0.50099325 -0.027354436 1.2920001
-0.46089834 -0.026300084 1.2935219
-0.43576196 -0.024237335 1.2954907
-0.40432534 -0.025815522 1.2967504
-0.37385055 -0.024156831 1.299981
-0.34813827 -0.022568209 1.2970927
0.65849996 0.043900002 1.317
0.67507893 0.051799517 1.3087531
0.70484203 0.052347291 1.309162
0.72715443 0.049325984 1.3090838
-0.46488604 0.077676378 1.3010279
0.67222893 0.061458167 1.2966155
0.70202893 0.060537305 1.2928333
0.72492242 0.06041 1.2945001
-0.57018244 -0.061949998 1.3275001
-0.55355173 -0.066333808 1.3437238
-0.52573502 -0.0671992 1.3408535
-0.49705404 -0.062756531 1.3447832
-0.46854952 -0.060568571 1.3479092
-0.44195813 -0.060383808 1.3490002
-0.399304 -0.062182482 1.3490001
-0.58042097 -0.059175242 1.322
-0.55972874 -0.057904817 1.3289375
-0.52238047 -0.056355596 1.325875
-0.49336967 -0.056218561 1.3325675
-0.46592081 -0.0524933 1.3367633
-0.43348202 -0.050180793 1.3360143
-0.40389538 -0.04848643 1.3361185
-0.38208276 -0.045991722 1.3309021
-0.31097153 -0.039180655 1.3439109
-0.29712954 -0.035709523 1.3390002
-0.30582857 -0.029308572 1.3380001
-0.29945716 -0.029308572 1.3380001
0.6540485 0.024771299 1.3487147
0.67319059 0.026197938 1.3429538
0.70516694 0.027872749 1.3445387
0.73682088 0.026747312 1.3445133
0.75295496 0.024761906 1.3453335
0.65690398 0.033980109 1.3440002
0.67428929 0.037446801 1.3311094
0.70645052 0.037648264 1.3297143
0.7337271 0.03653292 1.3306938
0.75055432 0.031857144 1.3380001
-0.46290988 0.086874291 1.322
-0.55148637 -0.074577466 1.3540001
-0.52217025 -0.078710616 1.3669508
-0.49580809 -0.075198948 1.3651298
-0.46531552 -0.070080832 1.3648027
-0.43390271 -0.070386924 1.3649129
-0.41140789 -0.069176018 1.357432
-0.36142936 -0.06368915 1.376
-0.34637928 -0.064312361 1.3744515
-0.31414923 -0.061861329 1.3730001
-0.42812192 -0.058028575 1.3540001
-0.41436702 -0.057168894 1.3540001
-0.33869609 -0.051146742 1.3627779
-0.31551957 -0.050326049 1.3605739
-0.29770342 -0.048580263 1.3585457
0.64832973 0.015302451 1.3598157
0.67529726 0.012468668 1.3644562
0.70345294 0.016771711 1.367407
0.73189354 0.016123565 1.3636919
0.75179243 0.019342858 1.3540001
-0.49293789 -0.092543021 1.3902779
-0.46553266 -0.095034391 1.3977093
-0.44662383 -0.091972865 1.3895001
-0.4145143 -0.093600005 1.404
-0.48995522 -0.086332105 1.3824289
-0.4644382 -0.084476151 1.3848699
-0.44274989 -0.084408849 1.3857622
-0.39598534 -0.085959189 1.404
-0.37427509 -0.077989154 1.3933746
-0.3443923 -0.075648345 1.3903236
-0.31684256 -0.072924003 1.3924348
-0.34590763 -0.043402858 1.381
0.62360692 -0.0082898596 1.3925295
0.64728183 -0.0092315366 1.393901
0.67246217 -0.0076134186 1.3971997
0.70263761 -0.003252577 1.3934137
0.72724581 -0.0013295239 1.3960001
0.64728653 0.0050793975 1.3884211
0.67276883 0.0019243957 1.383231
0.70859355 0.0054934951 1.3845125
0.7240333 0.0049611726 1.3840004
-0.47671428 -0.10071429 1.4100001
-0.42645794 -0.10903165 1.4342796
-0.40407741 -0.102137 1.4270136
-0.37361622 -0.10072953 1.4272226
-0.34688559 -0.098209515 1.4285693
-0.31343263 -0.094787315 1.4326925
-0.28773499 -0.097050376 1.4351172
-0.39972386 -0.087733343 1.4100001
-0.36982289 -0.088897161 1.4100001
-0.34236473 -0.086641453 1.4123529
-0.31197664 -0.085078567 1.4150629
-0.29273665 -0.085354581 1.419286
0.56717467 -0.032042857 1.4378002
0.58814317 -0.03411283 1.4363998
0.61753398 -0.038579393 1.4369377
0.64250547 -0.035652224 1.4353073
0.66714054 -0.032445982 1.4357274
0.56477386 -0.027473547 1.4343334
0.58737582 -0.023726461 1.4223657
0.61606532 -0.021769447 1.4179107
0.64518839 -0.022991452 1.4189795
0.6746037 -0.020217789 1.4201202
0.69464082 -0.0099755116 1.4100001
-0.42960638 -0.12338926 1.4537646
-0.40298167 -0.12597559 1.455158
-0.37735179 -0.12407237 1.4573332
-0.35215315 -0.12184115 1.4604
-0.43328834 -0.11591759 1.4449999
-0.40680861 -0.11612486 1.4454514
-0.37695616 -0.11516824 1.4467499
-0.3422538 -0.11136864 1.4517193
-0.3152923 -0.10977914 1.4549249
-0.28944886 -0.11015684 1.4535128
0.59814858 -0.062742859 1.4640001
0.60372579 -0.062742859 1.4640001
0.5624333 -0.04218255 1.4560541
0.58477896 -0.045058023 1.4564558
0.6089046 -0.050369862 1.4549778
0.5862571 -0.023395238 1.4450001
-0.39664251 -0.13587467 1.4738002
-0.37267262 -0.13639365 1.485091
-0.34421295 -0.12933585 1.4824252
-0.31573769 -0.12768196 1.4811668
-0.28565323 -0.13011248 1.4872202
-0.26525536 -0.12675932 1.4777999
-0.33600003 -0.119 1.47
-0.322 -0.119 1.47
-0.28033176 -0.11756571 1.4761051
-0.26976478 -0.11722762 1.483
0.56236511 -0.066943251 1.4863445
0.58409959 -0.065772966 1.4835957
0.60346007 -0.066113338 1.4770001
0.56127542 -0.054641385 1.4748498
0.5849874 -0.056118727 1.4713331
0.602 -0.0546 1.47
-0.36758405 -0.15149525 1.50775
-0.34370387 -0.15640749 1.52017
-0.31869182 -0.15755026 1.5279331
-0.39078 -0.1445743 1.503
-0.37520656 -0.14585631 1.504059
-0.34389353 -0.14383291 1.5080904
-0.31486383 -0.14291064 1.5128909
-0.29568344 -0.14240056 1.5042002
0.57782 -0.07491143 1.503
-0.33323884 -0.16120687 1.5360001
-0.32036573 -0.15945143 1.536
-0.27945638 -0.16544606 1.5556664
-0.25475487 -0.15995087 1.5569997
-0.23874 -0.16163142 1.557
-0.26543143 -0.14858229 1.557
-0.27714282 -0.18408135 1.576467
-0.25497326 -0.18350172 1.583118
-0.23160635 -0.18377462 1.5860002
-0.27766365 -0.17237912 1.565263
-0.25705296 -0.16970462 1.5673751
-0.23218605 -0.17501515 1.5806668
-0.26513526 -0.14597335 1.5640001
-0.27379942 -0.19297013 1.5954001
-0.25557765 -0.19419843 1.5984426
-0.2265061 -0.19470216 1.604964
-0.06526877 -0.19888528 1.6087333
-0.059465718 -0.19059525 1.6010001
-0.21496397 -0.21395478 1.6278336
-0.19511776 -0.21752343 1.6441491
-0.1745512 -0.21715604 1.6390001
-0.064960003 -0.21189333 1.6240001
-0.2163218 -0.20394759 1.6244709
-0.19811785 -0.20336339 1.6361945
-0.17482665 -0.20760667 1.6390001
-0.095894024 -0.20357127 1.6407275
-0.082618006 -0.20437478 1.6431
-0.19229525 -0.21909049 1.6550001
-0.10124011 -0.21850979 1.6656671
-0.080707625 -0.2167362 1.6653529
-0.10434382 -0.20900285 1.6550001
-0.07880953 -0.20963334 1.6550001
-0.13233271 -0.24533321 1.6981723
-0.11391833 -0.24325216 1.7027501
-0.068744093 -0.24286354 1.7023001
-0.056003809 -0.2424804 1.6996001
-0.13142565 -0.23115852 1.6919998
-0.10558707 -0.23160553 1.6869092
-0.075148173 -0.2309366 1.6896752
-0.056800004 -0.23334706 1.6944001
-0.12235714 -0.25450289 1.7130001
-0.10261848 -0.25497016 1.7262077
-0.076297902 -0.25768214 1.727807
-0.05486463 -0.25360942 1.7307144
-0.094891429 -0.2713562 1.748
-0.064083017 -0.27475733 1.7555001
-0.0455737 -0.27659118 1.7642578
-0.061596192 -0.26636189 1.748
-0.048359547 -0.26421419 1.7574289
-0.044992007 -0.28720459 1.7760003
