# .PCD v0.7 - Point Cloud Data file format
VERSION 0.7
FIELDS x y z
SIZE 4 4 4
TYPE F F F
COUNT 1 1 1
WIDTH 1515
HEIGHT 1
VIEWPOINT 0 0 0 1 0 0 0
POINTS 1515
DATA ascii
0.35643333 0.61265981 1.3803202
0.35943156 0.61255491 1.3793035
0.36242956 0.61245 1.3782866
0.36542779 0.61234498 1.3772697
0.36842591 0.61224008 1.3762529
0.37142402 0.61213517 1.375236
0.38059348 0.6150822 1.3803992
0.38360602 0.61497676 1.3793774
0.38661867 0.61487132 1.3783557
0.38963109 0.61476588 1.3773341
0.39264375 0.61466044 1.3763123
0.39565641 0.614555 1.3752906
0.40570885 0.61787969 1.3811883
0.40469402 0.61423868 1.3722254
0.40770656 0.61413324 1.3712037
-0.72002798 0.52873456 1.4308819
-0.71757793 0.52864879 1.4300508
-0.65445703 0.55927205 1.4913632
-0.65186274 0.55918127 1.4904833
-0.53771687 0.53138262 1.3917986
-0.53360569 0.53370118 1.3966084
-0.53110516 0.53361368 1.3957603
-0.52860457 0.53352618 1.3949121
-0.52610403 0.53343862 1.3940641
-0.47202477 0.53359789 1.3808929
-0.4695152 0.53351009 1.3800418
-0.46700564 0.53342223 1.3791907
-0.46449608 0.53333443 1.3783395
-0.46198648 0.53324658 1.3774884
-0.45947692 0.53315872 1.3766373
-0.45696735 0.53307092 1.3757862
-0.44241944 0.53502417 1.3770562
-0.43989906 0.53493595 1.3762015
-0.43737867 0.53484774 1.3753467
0.2668466 0.61567444 1.4022448
0.29668385 0.61463016 1.3921254
0.29966754 0.61452574 1.3911135
0.30850536 0.61749959 1.3963881
0.31150347 0.61739469 1.3953713
0.33848673 0.61645031 1.3862199
0.34148508 0.61634541 1.385203
0.34448308 0.6162405 1.3841861
0.35647565 0.61582065 1.3801188
0.35947388 0.61571574 1.379102
0.36247188 0.61561084 1.3780853
0.36547011 0.61550593 1.3770684
0.36846834 0.61540091 1.3760515
0.37146646 0.61529601 1.3750348
0.37446457 0.6151911 1.374018
0.37746269 0.6150862 1.3730011
0.38666111 0.61804748 1.3781534
0.38967365 0.61794204 1.3771317
0.39268619 0.61783659 1.37611
0.39569885 0.61773115 1.3750882
0.39871138 0.61762571 1.3740666
0.40172392 0.61752027 1.3730447
0.40473658 0.61741483 1.3720231
-0.72244346 0.53140336 1.4315482
-0.71999335 0.53131765 1.4307173
-0.71670055 0.53367621 1.4358038
-0.65547949 0.55957043 1.4853449
-0.56357706 0.53738773 1.4066172
-0.53607094 0.53642505 1.3972884
-0.53357041 0.53633749 1.3964404
-0.53270221 0.53383327 1.3899425
-0.53021252 0.53374612 1.3890982
-0.52772272 0.53365898 1.3882538
-0.50429386 0.53077745 1.3751383
-0.50181317 0.53069061 1.374297
-0.47605759 0.53432459 1.3769348
-0.47198933 0.53624374 1.3807244
-0.46947977 0.53615588 1.3798733
-0.46697021 0.53606808 1.3790221
-0.46446061 0.53598022 1.378171
-0.46195105 0.53589237 1.3773199
-0.45944148 0.53580457 1.3764688
-0.45693192 0.53571671 1.3756176
-0.44994503 0.53794605 1.3794514
-0.44742462 0.53785783 1.3785965
-0.44490424 0.53776962 1.3777418
-0.44238386 0.5376814 1.376887
-0.43986347 0.53759319 1.3760322
-0.43734309 0.53750497 1.3751774
0.29374224 0.61788028 1.3929369
0.29672593 0.61777586 1.3919251
0.29970962 0.61767143 1.3909131
0.30854779 0.62066054 1.3961867
0.31154591 0.62055564 1.39517
0.32656318 0.61673158 1.3818057
0.33852917 0.61961126 1.3860185
0.35351974 0.61908662 1.3809344
0.35651809 0.6189816 1.3799175
0.3595162 0.6188767 1.3789006
0.36251432 0.61877179 1.3778839
0.36551243 0.61866689 1.3768671
0.36851054 0.61856186 1.3758502
0.37150866 0.61845696 1.3748333
0.37450689 0.61835206 1.3738165
0.377505 0.61824715 1.3727998
0.38670367 0.62122363 1.3779511
0.38971621 0.62111819 1.3769294
0.39272887 0.62101275 1.3759077
0.3957414 0.62090731 1.3748859
0.39875394 0.62080187 1.3738642
0.4017666 0.62069643 1.3728424
0.40477902 0.62059098 1.3718207
-0.72897029 0.53670132 1.4398116
-0.72650933 0.53661525 1.438977
-0.7240485 0.53652906 1.4381423
-0.72158754 0.536443 1.4373077
-0.7191267 0.53635681 1.4364731
-0.53764653 0.53663242 1.3914641
-0.53515685 0.53654528 1.3906198
-0.53266704 0.53645813 1.3897754
-0.53017735 0.53637099 1.3889309
-0.52768761 0.53628385 1.3880866
-0.5084911 0.53105575 1.3702046
-0.50425887 0.53339285 1.3749717
-0.50177813 0.53330606 1.3741304
-0.49034151 0.53497678 1.3754206
-0.48785177 0.53488964 1.3745761
-0.47352171 0.5368734 1.3759187
-0.47102115 0.53678584 1.3750707
-0.46852058 0.53669834 1.3742226
-0.46442518 0.53862607 1.3780024
-0.46191561 0.53853822 1.3771514
-0.45940605 0.53845036 1.3763002
-0.45689648 0.53836256 1.3754491
-0.45438689 0.53827471 1.3745979
-0.45187733 0.53818685 1.3737469
-0.44936776 0.53809905 1.3728957
-0.4468582 0.53801119 1.3720446
-0.44234827 0.54033864 1.3767177
-0.43982786 0.54025042 1.375863
0.29080063 0.62113047 1.3937485
0.29378444 0.62102604 1.3927366
0.29676801 0.62092161 1.3917246
0.29975182 0.62081718 1.3907127
0.33557326 0.62287712 1.3868339
0.35356218 0.62224758 1.380733
0.35656029 0.62214255 1.3797162
0.35955852 0.62203765 1.3786993
0.36255652 0.62193274 1.3776824
0.36555475 0.62182784 1.3766656
0.36855298 0.62172282 1.3756489
0.3715511 0.62161791 1.374632
0.38072115 0.6246106 1.3797922
0.38373369 0.62450516 1.3787705
0.38674623 0.62439972 1.3777487
0.38975877 0.62429428 1.3767271
0.39977962 0.62767142 1.3826325
0.40280825 0.62756544 1.3816053
0.40583712 0.62745941 1.380578
-0.56499851 0.54021591 1.4005853
-0.53647321 0.53713697 1.3857425
-0.53399253 0.53705019 1.3849013
-0.51092613 0.53374618 1.3708763
-0.50845623 0.53365976 1.3700386
-0.50422382 0.5360083 1.3748051
-0.50174308 0.53592145 1.3739637
-0.49926233 0.53583461 1.3731225
-0.49678162 0.53574783 1.3722811
-0.47098583 0.53942221 1.3749027
-0.4684853 0.53933471 1.3740547
-0.46598473 0.53924716 1.3732066
-0.46348417 0.53915966 1.3723586
-0.4609836 0.53907216 1.3715105
-0.45686102 0.54100841 1.3752805
-0.45435145 0.54092056 1.3744293
-0.45184189 0.5408327 1.3735783
-0.45098138 0.53872204 1.3681182
-0.44848084 0.53863454 1.3672701
-0.44431317 0.54056925 1.3710248
-0.4418036 0.54048139 1.3701738
-0.43929404 0.54039353 1.3693227
0.29084283 0.62427616 1.3935481
0.29963797 0.62729728 1.3988345
0.32664734 0.62302303 1.3814049
0.33561569 0.62603807 1.3866326
0.3685953 0.62488377 1.3754475
0.37159342 0.62477887 1.3744307
0.38076359 0.62778676 1.3795898
0.38377625 0.62768131 1.3785682
0.38678879 0.62757587 1.3775464
0.38980132 0.62747043 1.3765247
0.39982229 0.63086462 1.382429
0.40285116 0.63075864 1.3814018
-0.82322288 0.55647796 1.4993764
-0.82071328 0.55639011 1.4985253
-0.5108912 0.53635025 1.3707104
-0.5084213 0.53626382 1.3698728
-0.50418878 0.53862369 1.3746386
-0.47533277 0.53970379 1.3700197
-0.47284302 0.53961664 1.3691753
-0.46844998 0.54197103 1.3738867
-0.46594942 0.54188353 1.3730386
-0.46344885 0.54179597 1.3721906
-0.46094829 0.54170847 1.3713425
-0.45844775 0.54162097 1.3704945
-0.45431602 0.54356635 1.3742609
-0.45180646 0.54347849 1.3734097
-0.45094606 0.54135841 1.3679503
-0.44844553 0.54127085 1.3671021
-0.44427773 0.54321504 1.3708564
0.32668954 0.62616879 1.3812045
0.36863762 0.62804472 1.375246
0.37163574 0.62793982 1.3742293
0.38080615 0.63096291 1.3793875
0.38381869 0.63085747 1.3783658
0.38683134 0.63075203 1.3773441
0.38984376 0.63064659 1.3763224
0.39986521 0.63405794 1.3822256
-0.83349586 0.55738503 1.4975369
-0.83099532 0.55729753 1.4966888
-0.51407659 0.5415864 1.3778373
-0.50838643 0.53886777 1.3697069
-0.4752976 0.54232872 1.3698525
-0.47280785 0.54224157 1.3690081
-0.46841466 0.54460734 1.3737189
-0.4659141 0.54451984 1.3728707
-0.46341354 0.54443228 1.3720226
-0.46091297 0.54434478 1.3711746
-0.45841244 0.54425728 1.3703265
-0.45428059 0.5462122 1.3740923
-0.45177102 0.54612434 1.3732412
-0.45091075 0.54399472 1.3677824
-0.44841021 0.54390717 1.3669343
0.36867994 0.63120556 1.3750448
0.37167805 0.63110065 1.374028
0.38084871 0.634139 1.3791852
0.38386136 0.63403356 1.3781635
0.38687378 0.63392812 1.3771417
0.38988644 0.63382268 1.3761201
0.39990789 0.63725114 1.3820221
-0.47931144 0.54298627 1.3658918
-0.47683072 0.54289949 1.3650506
-0.47277269 0.5448665 1.3688408
-0.47028294 0.54477936 1.3679965
-0.46779323 0.54469222 1.3671521
-0.46337822 0.5470686 1.3718548
-0.46087769 0.5469811 1.3710066
-0.45837712 0.54689354 1.3701586
-0.45424515 0.54885799 1.3739238
-0.45173556 0.54877013 1.3730726
-0.45087546 0.54663098 1.3676144
-0.4483749 0.54654348 1.3667663
0.36572415 0.63447142 1.3758602
0.36872226 0.63436651 1.3748434
0.37172037 0.63426161 1.3738265
0.38089126 0.63731515 1.3789829
0.3839038 0.63720971 1.3779612
0.38691646 0.63710427 1.3769394
0.38992888 0.63699883 1.3759177
-1.0209682 0.54422235 1.4998471
-0.47927642 0.54560167 1.3657253
-0.4767957 0.54551488 1.3648839
-0.47273752 0.54749143 1.3686737
-0.47024781 0.54740429 1.3678292
-0.46775806 0.54731715 1.3669848
-0.46526831 0.54723001 1.3661405
-0.46084237 0.54961747 1.3708388
-0.45834181 0.54952991 1.3699906
-0.45584124 0.54944241 1.3691425
-0.45334068 0.54935491 1.3682945
-0.45084015 0.54926735 1.3674464
-0.44833958 0.54917985 1.3665984
0.36276823 0.63773739 1.3766757
0.36576647 0.63763249 1.3756589
0.3687647 0.63752747 1.374642
0.37792128 0.64059681 1.3798022
0.38093382 0.64049137 1.3787806
0.38394648 0.64038593 1.3777587
0.39393574 0.64384961 1.3836699
-1.0209345 0.54674649 1.4996862
-1.0185401 0.54666269 1.4988743
-0.56854749 0.55134279 1.395847
-0.55984324 0.55316627 1.3980604
-0.5383243 0.55496687 1.3969609
-0.47676066 0.54813027 1.3647172
-0.47427994 0.54804349 1.363876
-0.47179919 0.54795665 1.3630346
-0.46772289 0.54994208 1.3668176
-0.46523315 0.54985493 1.3659732
-0.46274343 0.54976779 1.3651289
-0.45830649 0.55216628 1.3698227
-0.45580593 0.55207872 1.3689747
-0.45330536 0.55199122 1.3681265
-0.45080483 0.55190372 1.3672785
0.35981256 0.64100325 1.3774911
0.36281067 0.64089835 1.3764744
0.36580878 0.64079332 1.3754575
0.37495118 0.64387834 1.3806217
0.37796384 0.6437729 1.3795999
0.38097626 0.64366746 1.3785782
-1.0209006 0.54927063 1.4995255
-1.0185064 0.54918683 1.4987135
-0.57099319 0.55404502 1.3965217
-0.56851244 0.55395824 1.3956804
-0.56603169 0.55387139 1.394839
-0.55610883 0.55352408 1.3914737
-0.54486966 0.55526829 1.3928268
-0.54237992 0.55518115 1.3919824
-0.53989017 0.555094 1.3911381
-0.53328788 0.55742812 1.3950968
-0.47424489 0.55065888 1.3637093
-0.47176418 0.55057204 1.362868
-0.46768773 0.55256695 1.3666505
-0.46519801 0.5524798 1.365806
-0.46270826 0.55239266 1.3649616
-0.45827118 0.5548026 1.3696548
-0.45577061 0.55471504 1.3688067
-0.45327008 0.55462754 1.3679587
-0.45076951 0.55454004 1.3671105
-0.44209912 0.55893922 1.3755329
0.35685676 0.64426899 1.3783066
0.359855 0.64416409 1.3772898
0.36896855 0.64726532 1.3824627
0.3719812 0.64715987 1.3814411
0.37499374 0.64705443 1.3804193
0.37800628 0.64694899 1.3793976
-1.0208668 0.55179483 1.4993647
-1.0184726 0.55171102 1.4985527
-0.96361327 0.55193812 1.4851115
-0.95899582 0.55392361 1.4887097
-0.95658356 0.55383921 1.4878916
-0.55359304 0.55605268 1.3904657
-0.47172913 0.55318749 1.3627014
-0.4626731 0.55501759 1.3647944
-0.45661294 0.55952919 1.3741007
-0.4557353 0.55735129 1.3686388
-0.45323476 0.55726379 1.3677907
0.36298603 0.65065235 1.3843038
0.36599857 0.65054691 1.3832822
0.36901122 0.65044147 1.3822604
0.37202364 0.65033603 1.3812387
0.3750363 0.65023059 1.380217
0.37804896 0.65012515 1.3791952
-1.0322419 0.5521304 1.4968766
-1.0298586 0.55204695 1.4960684
-1.020833 0.55431902 1.4992039
-1.0184387 0.55423522 1.4983919
-0.9659825 0.55455583 1.4857651
-0.9635793 0.55447173 1.4849501
-0.96137393 0.55655128 1.4893658
-0.95896173 0.55646682 1.4885477
-0.95654953 0.55638242 1.4877295
-0.95413733 0.55629796 1.4869115
-0.56251514 0.55639362 1.3871404
-0.56004524 0.5563072 1.3863027
-0.55757535 0.55622077 1.385465
-0.47913629 0.55606335 1.3650588
-0.46263793 0.55764252 1.3646272
-0.45657751 0.56217498 1.3739321
-0.45570001 0.55998766 1.3684708
-0.45319945 0.55990016 1.3676227
-0.44904879 0.56191152 1.3713788
-0.44653922 0.56182367 1.3705276
0.36604124 0.653723 1.3830798
0.36905366 0.65361756 1.3820581
0.37206632 0.65351212 1.3810364
0.37507886 0.65340668 1.3800147
0.37809139 0.65330124 1.3789929
-1.0322082 0.55464315 1.4967165
-1.029825 0.55455971 1.4959083
-1.0274415 0.55447632 1.4950999
-1.0250582 0.55439287 1.4942915
-1.0226748 0.55430949 1.4934833
-1.0207992 0.55684322 1.4990431
-1.018405 0.55675942 1.4982311
-0.96616435 0.55926323 1.4908401
-0.96375203 0.55917883 1.4900219
-0.96133989 0.55909437 1.4892038
-0.95892763 0.55900997 1.4883857
-0.95651543 0.55892551 1.4875675
-0.95410323 0.55884111 1.4867495
-0.95185268 0.56092846 1.4911494
-0.94943148 0.56084371 1.4903283
-0.94701028 0.56075895 1.4895072
-0.94458896 0.56067419 1.488686
-0.55507052 0.55873835 1.3844615
-0.55260062 0.55865192 1.3836238
-0.48158199 0.55876559 1.3657335
-0.47910124 0.55867881 1.3648921
-0.47662053 0.55859196 1.3640509
-0.46917835 0.55833149 1.3615268
-0.46260276 0.56026745 1.36446
-0.45816523 0.56271154 1.3691509
-0.45566469 0.56262404 1.3683028
-0.45316413 0.56253654 1.3674548
-0.45066357 0.56244904 1.3666067
-0.44650379 0.56446952 1.3703591
-1.0321746 0.55715591 1.4965565
-1.0297914 0.55707252 1.4957482
-1.0274079 0.55698907 1.4949398
-1.0250245 0.55690569 1.4941316
-1.0226412 0.55682224 1.4933232
-1.0207654 0.55936742 1.4988823
-1.0183711 0.55928361 1.4980702
-0.963718 0.56172204 1.4898598
-0.96130586 0.56163764 1.4890418
-0.9588936 0.56155318 1.4882237
-0.95648134 0.56146878 1.4874055
-0.95406914 0.56138438 1.4865875
-0.95181847 0.56348121 1.4909868
-0.94939733 0.56339645 1.4901657
-0.94697607 0.5633117 1.4893446
-0.94455481 0.56322694 1.4885234
-0.47162405 0.56103373 1.3622016
-0.46914333 0.56094688 1.3613602
-0.46666259 0.56086004 1.3605188
-0.46256763 0.56289238 1.3642927
-0.45562938 0.56526029 1.368135
-0.45312881 0.56517279 1.3672868
-0.45062825 0.56508529 1.3664387
-1.0637259 0.55421877 1.4916222
-1.0613695 0.55413628 1.490823
-1.0231256 0.56197536 1.4995334
-1.0183372 0.56180781 1.4979095
-0.96127176 0.56418079 1.4888798
-0.95885956 0.56409633 1.4880617
-0.9564473 0.56401193 1.4872435
-0.9540351 0.56392747 1.4864254
-0.95178425 0.56603384 1.4908242
-0.94936311 0.56594914 1.4900031
-0.94694185 0.56586438 1.489182
-0.94452059 0.56577963 1.4883608
-0.72822964 0.56083173 1.4211998
-1.0684053 0.55686796 1.4930623
-1.066049 0.55678546 1.4922631
-1.0636927 0.55670297 1.4914639
-1.0613363 0.5566206 1.4906647
-0.95659256 0.56875604 1.492304
-0.95417142 0.56867129 1.4914829
-0.95175004 0.56858659 1.4906616
-0.9493289 0.56850183 1.4898405
-0.9469077 0.56841707 1.4890193
-0.94448638 0.56833231 1.4881982
-0.92505443 0.56545758 1.4764462
-0.92264223 0.56537312 1.475628
-0.95171589 0.57113922 1.490499
-0.94929469 0.57105446 1.4896779
-0.94687355 0.57096976 1.4888567
-0.8403393 0.56724107 1.4527254
-0.83760309 0.56979036 1.4579906
-0.52422959 0.56587565 1.3682245
-0.52176869 0.56578952 1.3673898
-0.51930779 0.56570339 1.3665552
-0.5168469 0.56561726 1.3657206
-0.52419484 0.56847012 1.3680592
-0.52173394 0.56838399 1.3672246
-0.51927304 0.56829786 1.36639
-0.52662098 0.57115084 1.3687285
-0.52416003 0.57106471 1.3678939
-0.52169919 0.57097858 1.3670592
-0.51923829 0.57089245 1.3662246
-0.49216846 0.56994504 1.3570439
-0.52658617 0.57374531 1.3685632
-0.52412534 0.57365918 1.3677286
-0.52166438 0.57357305 1.366894
-0.51920354 0.57348692 1.3660594
-0.49705547 0.57271177 1.3585478
-0.4945946 0.57262564 1.3577132
-0.49213371 0.57253951 1.3568786
-0.48967281 0.57245338 1.3560439
-0.44121063 0.57298994 1.3447673
-0.4387407 0.57290345 1.3439296
-0.43420297 0.5754239 1.3485818
-0.52655149 0.57633978 1.368398
-0.52409053 0.57625365 1.3675634
-0.52162969 0.57616752 1.3667288
-0.51916879 0.5760814 1.3658941
-0.4988291 0.57267898 1.3528054
-0.49637902 0.57259321 1.3519745
-0.49209896 0.57513398 1.3567133
-0.48963806 0.57504785 1.3558787
-0.47187826 0.57173568 1.343665
-0.44858545 0.57585329 1.3471144
-0.44611555 0.5757668 1.3462768
-0.44364566 0.57568038 1.3454391
-0.44117573 0.57559395 1.3446014
-0.43870583 0.57550746 1.3437637
-0.43416795 0.57803929 1.3484151
-0.52159488 0.57876211 1.3665634
-0.51913404 0.57867599 1.3657289
-0.50124454 0.57534784 1.3534718
-0.4987945 0.57526207 1.3526409
-0.49634442 0.5751763 1.35181
-0.49206421 0.57772857 1.3565481
-0.48960331 0.57764244 1.3557134
-0.48714241 0.57755631 1.3548788
-0.47184366 0.57431877 1.3435004
-0.45102048 0.57854366 1.3477862
-0.44855058 0.57845724 1.3469485
-0.44608068 0.57837075 1.3461108
-0.44361076 0.57828432 1.3452731
-0.44114086 0.5781979 1.3444355
-0.43661362 0.58074147 1.3490899
-0.4341329 0.58065468 1.3482485
-0.6265375 0.62121016 1.4845234
-0.62393236 0.62111902 1.4836398
-0.62132722 0.62102783 1.4827564
-0.61872214 0.62093663 1.4818728
-0.616117 0.6208455 1.4809892
-0.52156019 0.58135653 1.3663982
-0.5208106 0.57861686 1.3599548
-0.51003134 0.57597852 1.3511415
-0.50366008 0.57801658 1.3541383
-0.50120997 0.57793087 1.3533072
-0.4987599 0.5778451 1.3524764
-0.49202943 0.58032298 1.3563827
-0.48956856 0.58023685 1.3555481
-0.48710766 0.58015072 1.3547136
-0.47425914 0.57698756 1.3441669
-0.47180906 0.57690179 1.3433359
-0.46003783 0.57920325 1.3455328
-0.45345551 0.58123416 1.3484581
-0.45098561 0.58114773 1.3476204
-0.44851571 0.5810613 1.3467827
-0.44604579 0.58097482 1.345945
-0.44357589 0.58088839 1.3451073
-0.43905932 0.58344376 1.3497646
-0.4365786 0.58335692 1.3489232
-0.43409789 0.58327013 1.3480819
-0.62389559 0.62386554 1.4834648
-0.62129045 0.62377435 1.4825814
-0.61868536 0.62368315 1.4816978
-0.61608022 0.62359202 1.4808143
-0.52152538 0.58395106 1.3662329
-0.50755584 0.57846659 1.3501496
-0.50362545 0.58059973 1.3539736
-0.49937737 0.5831759 1.3587214
-0.49691647 0.58308977 1.3578867
-0.49445558 0.58300364 1.3570521
-0.49199468 0.58291751 1.3562175
-0.48953378 0.58283138 1.3553829
-0.48707291 0.58274525 1.3545482
-0.46984667 0.58214235 1.3487059
-0.46738577 0.58205622 1.3478713
-0.46330026 0.58418393 1.3516428
-0.46083036 0.5840975 1.3508052
-0.46000308 0.58179778 1.3453674
-0.45754218 0.58171165 1.3445328
-0.45342064 0.58383816 1.3482921
-0.45095071 0.58375174 1.3474544
-0.44848081 0.58366531 1.3466167
-0.44601092 0.58357882 1.3457791
-0.44354099 0.5834924 1.3449414
-0.4390243 0.58605915 1.3495979
-0.43654358 0.58597231 1.3487567
-0.43406284 0.58588552 1.3479153
-0.63282335 0.62418956 1.4801425
-0.630229 0.62409878 1.4792627
-0.62504041 0.62391716 1.4775029
-0.62244612 0.62382638 1.4766231
-0.61985183 0.62373555 1.4757432
-0.61725748 0.62364477 1.4748633
-0.52501309 0.5889492 1.3724188
-0.52395153 0.58663172 1.3669022
-0.52149069 0.58654559 1.3660676
-0.51386595 0.57898206 1.3469809
-0.50752139 0.58104014 1.3499856
-0.47409934 0.62729913 1.4459057
-0.47147077 0.62720716 1.4450141
-0.46703321 0.6297881 1.449697
-0.46439382 0.62969571 1.4488019
-0.46175447 0.62960333 1.4479067
-0.46573529 0.58687449 1.3523146
-0.46326539 0.586788 1.3514769
-0.46242923 0.5844785 1.3460368
-0.45996833 0.58439231 1.3452022
-0.45750743 0.58430618 1.3443675
-0.45338574 0.58644223 1.3481262
-0.45091584 0.58635581 1.3472886
-0.44844595 0.58626938 1.3464509
-0.44597602 0.58618289 1.3456132
-0.44350612 0.58609647 1.3447756
-0.43898925 0.58867455 1.3494314
-0.43650854 0.5885877 1.34859
-0.43402782 0.58850092 1.3477486
-0.49771926 0.63089848 1.4537524
-0.47143367 0.62997848 1.4448376
-0.4688051 0.62988645 1.4439461
-0.46435657 0.63247842 1.4486246
-0.46171719 0.63238603 1.4477295
-0.46239448 0.58707303 1.3458716
-0.45993358 0.58698684 1.3450369
-0.45747268 0.58690071 1.3442023
-0.45335087 0.58904624 1.3479604
-0.45088097 0.58895981 1.3471227
-0.44841105 0.58887339 1.346285
-0.47139654 0.63274974 1.444661
-0.46876797 0.63265771 1.4437696
-0.46431929 0.63526106 1.4484473
-0.46167991 0.63516867 1.4475522
-0.45904052 0.63507628 1.4466571
-0.4679226 0.63263017 1.4371331
-0.46530485 0.63253856 1.4362453
-0.4626871 0.63244694 1.4353575
-0.46006936 0.63235533 1.4344697
-0.46526787 0.63529843 1.4360695
-0.46265012 0.63520682 1.4351816
-0.46784866 0.63814986 1.4367814
-0.46523091 0.63805825 1.4358937
-0.46261317 0.63796663 1.4350058
-0.65405661 0.66579705 1.4785779
-0.49154285 0.51718861 1.4960001
-0.48869333 0.51718861 1.4960001
-0.48584381 0.51718861 1.4960001
-0.48299429 0.51718861 1.4960001
-0.48014477 0.51718861 1.4960001
-0.47444573 0.51718861 1.4960001
-0.47159621 0.51718861 1.4960001
-0.86768001 0.52288765 1.4960001
-0.58488095 0.50506192 1.4450001
-0.58212858 0.50506192 1.4450001
-0.53998476 0.52288765 1.4960001
-0.52894956 0.52044094 1.4890001
-0.86483049 0.52573717 1.4960001
-0.54283428 0.52573717 1.4960001
-0.53745812 0.52327716 1.4890001
-0.53462195 0.52327716 1.4890001
-0.86198097 0.52858663 1.4960001
-0.85913146 0.52858663 1.4960001
-0.85628188 0.52858663 1.4960001
-0.59601146 0.51304001 1.452
-0.59324574 0.51304001 1.452
-0.59048003 0.51304001 1.452
-0.58488095 0.51056671 1.4450001
-0.58212858 0.51056671 1.4450001
-0.58218282 0.51304001 1.452
-0.54596668 0.52611333 1.4890001
-0.5456838 0.52858663 1.4960001
-0.85628188 0.5314362 1.4960001
-0.72939998 0.52219999 1.47
-0.72659999 0.52219999 1.47
-0.59601146 0.51580572 1.452
-0.59324574 0.51580572 1.452
-0.59048003 0.51580572 1.452
-0.58488095 0.51331908 1.4450001
-0.58212858 0.51331908 1.4450001
-0.58218282 0.51580572 1.452
-0.85343236 0.53428572 1.4960001
-0.8505829 0.53428572 1.4960001
-0.72939998 0.52499998 1.47
-0.72099996 0.52499998 1.47
-0.59324574 0.51857144 1.452
-0.58763331 0.51607144 1.4450001
-0.58488095 0.51607144 1.4450001
-0.58212858 0.51607144 1.4450001
-0.74432474 0.5324676 1.483
-0.73850006 0.53031337 1.4770001
-0.73568672 0.53031337 1.4770001
-0.73287344 0.53031337 1.4770001
-0.59313816 0.5188238 1.4450001
-0.59038574 0.5188238 1.4450001
-0.58245236 0.51666951 1.439
-0.57971144 0.51666951 1.439
-0.57937622 0.5188238 1.4450001
-0.57388574 0.52133715 1.452
-0.57112002 0.52133715 1.452
-0.56835431 0.52133715 1.452
-0.56558853 0.52133715 1.452
-0.56282282 0.52133715 1.452
-0.56005716 0.52133715 1.452
-0.55729145 0.52133715 1.452
-0.52686858 0.52133715 1.452
-0.74059999 0.53060001 1.47
-0.7413134 0.53312665 1.4770001
-0.73850006 0.53312665 1.4770001
-0.73568672 0.53312665 1.4770001
-0.73287344 0.53312665 1.4770001
-0.73006004 0.53312665 1.4770001
-0.70477813 0.53529239 1.483
-0.59699523 0.51074767 1.4150001
-0.58275336 0.51724482 1.4330001
-0.58002383 0.51724482 1.4330001
-0.57729435 0.51724482 1.4330001
-0.57456475 0.51724482 1.4330001
-0.57422948 0.51941043 1.439
-0.57148856 0.51941043 1.439
-0.57111907 0.52157623 1.4450001
-0.56836671 0.52157623 1.4450001
-0.56561428 0.52157623 1.4450001
-0.56286192 0.52157623 1.4450001
-0.56010956 0.52157623 1.4450001
-0.55504286 0.51941043 1.439
-0.55230188 0.51941043 1.439
-0.55185241 0.52157623 1.4450001
-0.54909998 0.52157623 1.4450001
-0.5489943 0.52410281 1.452
-0.48579526 0.52157623 1.4450001
-0.48304287 0.52157623 1.4450001
-0.47829619 0.51941043 1.439
-0.47555524 0.51941043 1.439
-0.47478575 0.52157623 1.4450001
-0.59640098 0.51997429 1.4330001
-0.59367144 0.51997429 1.4330001
-0.59094191 0.51997429 1.4330001
-0.58821243 0.51997429 1.4330001
-0.58303148 0.51779717 1.427
-0.58031338 0.51779717 1.427
-0.57759529 0.51779717 1.427
-0.57487714 0.51779717 1.427
-0.57215905 0.51779717 1.427
-0.56944096 0.51779717 1.427
-0.56672287 0.51779717 1.427
-0.56874764 0.52215147 1.439
-0.56600666 0.52215147 1.439
-0.56326574 0.52215147 1.439
-0.56052476 0.52215147 1.439
-0.55778384 0.52215147 1.439
-0.55272859 0.51997429 1.4330001
-0.54999906 0.51997429 1.4330001
-0.54956096 0.52215147 1.439
-0.54681998 0.52215147 1.439
-0.54634768 0.52432859 1.4450001
-0.54622859 0.52686858 1.452
-0.52983332 0.52432859 1.4450001
-0.52489239 0.52215147 1.439
-0.51941043 0.52215147 1.439
-0.51331908 0.52432859 1.4450001
-0.51056671 0.52432859 1.4450001
-0.50570571 0.52215147 1.439
-0.48994952 0.51997429 1.4330001
-0.48722002 0.51997429 1.4330001
-0.48449048 0.51997429 1.4330001
-0.48176098 0.51997429 1.4330001
-0.47903144 0.51997429 1.4330001
-0.47630194 0.51997429 1.4330001
-0.59699523 0.51613808 1.4150001
-0.58968002 0.51212573 1.404
-0.58700573 0.51212573 1.404
-0.59640098 0.52270383 1.4330001
-0.59367144 0.52270383 1.4330001
-0.59094191 0.52270383 1.4330001
-0.58574957 0.52051526 1.427
-0.58303148 0.52051526 1.427
-0.58031338 0.52051526 1.427
-0.57759529 0.52051526 1.427
-0.57487714 0.52051526 1.427
-0.57215905 0.52051526 1.427
-0.5670467 0.5183267 1.4210001
-0.56434005 0.5183267 1.4210001
-0.56400478 0.52051526 1.427
-0.56128669 0.52051526 1.427
-0.55585045 0.52051526 1.427
-0.55313236 0.52051526 1.427
-0.55041426 0.52051526 1.427
-0.54769617 0.52051526 1.427
-0.54726958 0.52270383 1.4330001
-0.54454005 0.52270383 1.4330001
-0.54407907 0.52489239 1.439
-0.54359525 0.52708095 1.4450001
-0.54084283 0.52708095 1.4450001
-0.53809047 0.52708095 1.4450001
-0.52270383 0.52270383 1.4330001
-0.51451528 0.52270383 1.4330001
-0.50420666 0.52051526 1.427
-0.50148857 0.52051526 1.427
-0.49877051 0.52051526 1.427
-0.49605241 0.52051526 1.427
-0.49061623 0.52051526 1.427
-0.48789811 0.52051526 1.427
-0.48518002 0.52051526 1.427
-0.48246193 0.52051526 1.427
-0.47974381 0.52051526 1.427
-0.47702572 0.52051526 1.427
-0.83525813 0.54596668 1.4890001
-0.82958579 0.54596668 1.4890001
-0.78358006 0.52103335 1.4210001
-0.75787336 0.52763337 1.439
-0.69209045 0.52763337 1.439
-0.68934953 0.52763337 1.439
-0.68947142 0.52983332 1.4450001
-0.68386763 0.52763337 1.439
-0.68112665 0.52763337 1.439
-0.67838567 0.52763337 1.439
-0.6031372 0.5126 1.3980001
-0.59699523 0.51883334 1.4150001
-0.58968002 0.51480001 1.404
-0.58700573 0.51480001 1.404
-0.58890957 0.51883334 1.4150001
-0.5862143 0.51883334 1.4150001
-0.58351904 0.51883334 1.4150001
-0.58082384 0.51883334 1.4150001
-0.57812858 0.51883334 1.4150001
-0.57543331 0.51883334 1.4150001
-0.57273817 0.51883334 1.4150001
-0.57004291 0.51883334 1.4150001
-0.5653429 0.51700002 1.4100001
-0.56265718 0.51700002 1.4100001
-0.55997145 0.51700002 1.4100001
-0.55728573 0.51700002 1.4100001
-0.55191427 0.51700002 1.4100001
-0.54689145 0.51480001 1.404
-0.54421717 0.51480001 1.404
-0.54309052 0.51883334 1.4150001
-0.54039526 0.51883334 1.4150001
-0.53998005 0.52103335 1.4210001
-0.53954196 0.52323335 1.427
-0.53362191 0.52543336 1.4330001
-0.53089237 0.52543336 1.4330001
-0.53037429 0.52763337 1.439
-0.52323335 0.52323335 1.427
-0.5183267 0.52103335 1.4210001
-0.49996668 0.51883334 1.4150001
-0.49727142 0.51883334 1.4150001
-0.49282861 0.51700002 1.4100001
-0.48918572 0.51883334 1.4150001
-0.48649049 0.51883334 1.4150001
-0.4858467 0.52103335 1.4210001
-0.48314005 0.52103335 1.4210001
-0.78358006 0.52374005 1.4210001
-0.7304638 0.53037429 1.439
-0.69155335 0.52374005 1.4210001
-0.68884671 0.52374005 1.4210001
-0.68920481 0.5281629 1.4330001
-0.68647528 0.5281629 1.4330001
-0.68374574 0.5281629 1.4330001
-0.68101621 0.5281629 1.4330001
-0.67828673 0.5281629 1.4330001
-0.67555714 0.5281629 1.4330001
-0.67564476 0.53037429 1.439
-0.6004743 0.5152629 1.3980001
-0.59488577 0.51968575 1.4100001
-0.58968002 0.51747429 1.404
-0.58700573 0.51747429 1.404
-0.58433145 0.51747429 1.404
-0.58165711 0.51747429 1.404
-0.58145714 0.51968575 1.4100001
-0.57877147 0.51968575 1.4100001
-0.5682857 0.51747429 1.404
-0.50592476 0.51120859 1.3870001
-0.78628671 0.5264467 1.4210001
-0.78358006 0.5264467 1.4210001
-0.75365716 0.53793144 1.452
-0.7249819 0.53311521 1.439
-0.72224098 0.53311521 1.439
-0.71949995 0.53311521 1.439
-0.72046858 0.53793144 1.452
-0.71770287 0.53793144 1.452
-0.69155335 0.5264467 1.4210001
-0.68884671 0.5264467 1.4210001
-0.68614006 0.5264467 1.4210001
-0.68343335 0.5264467 1.4210001
-0.68360096 0.52866954 1.427
-0.67802006 0.5264467 1.4210001
-0.67531335 0.5264467 1.4210001
-0.67260671 0.5264467 1.4210001
-0.6727286 0.52866954 1.427
-0.67282766 0.53089237 1.4330001
-0.62710291 0.51792574 1.3980001
-0.62444001 0.51792574 1.3980001
-0.62177718 0.51792574 1.3980001
-0.59248573 0.51792574 1.3980001
-0.58968002 0.52014858 1.404
-0.5037362 0.51162767 1.381
-0.50110573 0.51162767 1.381
-0.78628671 0.52915335 1.4210001
-0.78358006 0.52915335 1.4210001
-0.78087336 0.52915335 1.4210001
-0.74260002 0.5250572 1.4100001
-0.7399143 0.5250572 1.4100001
-0.73722857 0.5250572 1.4100001
-0.73141718 0.52282286 1.404
-0.71862006 0.52915335 1.4210001
-0.71621811 0.53138763 1.427
-0.71650004 0.53362191 1.4330001
-0.71377051 0.53362191 1.4330001
-0.71104097 0.53362191 1.4330001
-0.70534575 0.53138763 1.427
-0.70262766 0.53138763 1.427
-0.68072671 0.52915335 1.4210001
-0.67515719 0.52691907 1.4150001
-0.67246193 0.52691907 1.4150001
-0.66976672 0.52691907 1.4150001
-0.66990006 0.52915335 1.4210001
-0.67001051 0.53138763 1.427
-0.66729242 0.53138763 1.427
-0.62706286 0.5183543 1.3920001
-0.62441146 0.5183543 1.3920001
-0.62444001 0.52058858 1.3980001
-0.62177718 0.52058858 1.3980001
-0.61911434 0.52058858 1.3980001
-0.61645144 0.52058858 1.3980001
-0.5905419 0.51425809 1.381
-0.58791143 0.51425809 1.381
-0.50191236 0.51239616 1.376
-0.50110573 0.51425809 1.381
-0.74260002 0.52774286 1.4100001
-0.7399143 0.52774286 1.4100001
-0.73722857 0.52774286 1.4100001
-0.73141718 0.5254972 1.404
-0.7287429 0.5254972 1.404
-0.72917145 0.52774286 1.4100001
-0.72648579 0.52774286 1.4100001
-0.72380006 0.52774286 1.4100001
-0.72111434 0.52774286 1.4100001
-0.71591336 0.53186005 1.4210001
-0.71320671 0.53186005 1.4210001
-0.71050006 0.53186005 1.4210001
-0.70779335 0.53186005 1.4210001
-0.70210952 0.52961433 1.4150001
-0.69941437 0.52961433 1.4150001
-0.70262766 0.53410572 1.427
-0.69990957 0.53410572 1.427
-0.69132859 0.52961433 1.4150001
-0.67515719 0.52961433 1.4150001
-0.67246193 0.52961433 1.4150001
-0.66976672 0.52961433 1.4150001
-0.66990006 0.53186005 1.4210001
-0.66719335 0.53186005 1.4210001
-0.66448671 0.53186005 1.4210001
-0.66178006 0.53186005 1.4210001
-0.65629053 0.52961433 1.4150001
-0.65359527 0.52961433 1.4150001
-0.62745237 0.51913428 1.3870001
-0.62481052 0.51913428 1.3870001
-0.62441146 0.52100575 1.3920001
-0.62444001 0.52325147 1.3980001
-0.62177718 0.52325147 1.3980001
-0.61911434 0.52325147 1.3980001
-0.61645144 0.52325147 1.3980001
-0.58791143 0.51688862 1.381
-0.58528101 0.51688862 1.381
-0.52159721 0.5086543 1.3590001
-0.50191236 0.51501715 1.376
-0.49929145 0.51501715 1.376
-0.49667048 0.51501715 1.376
-0.77218574 0.53230959 1.4150001
-0.77004671 0.5345667 1.4210001
-0.74478859 0.52817142 1.404
-0.73894292 0.52591431 1.3980001
-0.73628002 0.52591431 1.3980001
-0.7399143 0.53042859 1.4100001
-0.73722857 0.53042859 1.4100001
-0.73141718 0.52817142 1.404
-0.7287429 0.52817142 1.404
-0.72606856 0.52817142 1.404
-0.72339427 0.52817142 1.404
-0.72380006 0.53042859 1.4100001
-0.71289051 0.53230959 1.4150001
-0.71019524 0.53230959 1.4150001
-0.71050006 0.5345667 1.4210001
-0.70779335 0.5345667 1.4210001
-0.70210952 0.53230959 1.4150001
-0.69941437 0.53230959 1.4150001
-0.69671911 0.53230959 1.4150001
-0.69402385 0.53230959 1.4150001
-0.69132859 0.53230959 1.4150001
-0.67515719 0.53230959 1.4150001
-0.67246193 0.53230959 1.4150001
-0.66976672 0.53230959 1.4150001
-0.66707146 0.53230959 1.4150001
-0.6643762 0.53230959 1.4150001
-0.66168094 0.53230959 1.4150001
-0.65898573 0.53230959 1.4150001
-0.65397143 0.53042859 1.4100001
-0.65128577 0.53042859 1.4100001
-0.65366006 0.5345667 1.4210001
-0.6482048 0.53230959 1.4150001
-0.64550954 0.53230959 1.4150001
-0.62745237 0.52177626 1.3870001
-0.62481052 0.52177626 1.3870001
-0.62441146 0.52365714 1.3920001
-0.62176001 0.52365714 1.3920001
-0.61910862 0.52365714 1.3920001
-0.61645716 0.52365714 1.3920001
-0.61380571 0.52365714 1.3920001
-0.61115432 0.52365714 1.3920001
-0.5905419 0.51951903 1.381
-0.58791143 0.51951903 1.381
-0.58528101 0.51951903 1.381
-0.52159721 0.51124293 1.3590001
-0.50191236 0.51763809 1.376
-0.49929145 0.51763809 1.376
-0.49667048 0.51763809 1.376
-0.49189529 0.51538098 1.3700001
-0.77004671 0.53727335 1.4210001
-0.73894292 0.52857715 1.3980001
-0.73628002 0.52857715 1.3980001
-0.73676568 0.5308457 1.404
-0.73409146 0.5308457 1.404
-0.73141718 0.5308457 1.404
-0.7287429 0.5308457 1.404
-0.72296578 0.52857715 1.3980001
-0.72030288 0.52857715 1.3980001
-0.72072005 0.5308457 1.404
-0.69932574 0.5308457 1.404
-0.69367439 0.52857715 1.3980001
-0.69132859 0.53500473 1.4150001
-0.67515719 0.53500473 1.4150001
-0.67246193 0.53500473 1.4150001
-0.6674 0.53311431 1.4100001
-0.66471428 0.53311431 1.4100001
-0.66202861 0.53311431 1.4100001
-0.65397143 0.53311431 1.4100001
-0.65128577 0.53311431 1.4100001
-0.65090007 0.53500473 1.4150001
-0.6482048 0.53500473 1.4150001
-0.64322859 0.53311431 1.4100001
-0.62441146 0.5263086 1.3920001
-0.62176001 0.5263086 1.3920001
-0.61910862 0.5263086 1.3920001
-0.61645716 0.5263086 1.3920001
-0.61380571 0.5263086 1.3920001
-0.61115432 0.5263086 1.3920001
-0.59317237 0.52214956 1.381
-0.58528101 0.52214956 1.381
-0.49972382 0.51799053 1.3700001
-0.48749998 0.51610005 1.365
-0.74160582 0.53124005 1.3980001
-0.73894292 0.53124005 1.3980001
-0.73628002 0.53124005 1.3980001
-0.73676568 0.53352004 1.404
-0.73095435 0.53124005 1.3980001
-0.72829145 0.53124005 1.3980001
-0.72562867 0.53124005 1.3980001
-0.71986288 0.52895999 1.3920001
-0.71721143 0.52895999 1.3920001
-0.7176401 0.53124005 1.3980001
-0.7149772 0.53124005 1.3980001
-0.7046743 0.53352004 1.404
-0.69900006 0.53124005 1.3980001
-0.69633716 0.53124005 1.3980001
-0.68293244 0.52706003 1.3870001
-0.67525715 0.53352004 1.404
-0.67545718 0.53580004 1.4100001
-0.67277145 0.53580004 1.4100001
-0.6672343 0.53352004 1.404
-0.66456002 0.53352004 1.404
-0.65128577 0.53580004 1.4100001
-0.62176001 0.52895999 1.3920001
-0.61910862 0.52895999 1.3920001
-0.61645716 0.52895999 1.3920001
-0.61380571 0.52895999 1.3920001
-0.61115432 0.52895999 1.3920001
-0.60585147 0.52895999 1.3920001
-0.58054096 0.52288002 1.376
-0.49009997 0.5187 1.365
-0.48749998 0.5187 1.365
-0.7442686 0.53390288 1.3980001
-0.74160582 0.53390288 1.3980001
-0.73894292 0.53390288 1.3980001
-0.73628002 0.53390288 1.3980001
-0.73676568 0.53619432 1.404
-0.73095435 0.53390288 1.3980001
-0.72516578 0.53161144 1.3920001
-0.72251427 0.53161144 1.3920001
-0.71986288 0.53161144 1.3920001
-0.71721143 0.53161144 1.3920001
-0.7176401 0.53390288 1.3980001
-0.71190858 0.53161144 1.3920001
-0.70925719 0.53161144 1.3920001
-0.70965153 0.53390288 1.3980001
-0.70698863 0.53390288 1.3980001
-0.70166296 0.53390288 1.3980001
-0.69900006 0.53390288 1.3980001
-0.69633716 0.53390288 1.3980001
-0.67997813 0.52741045 1.381
-0.61952668 0.52970189 1.3870001
-0.61688483 0.52970189 1.3870001
-0.61645716 0.53161144 1.3920001
-0.61380571 0.53161144 1.3920001
-0.61115432 0.53161144 1.3920001
-0.60850286 0.53161144 1.3920001
-0.60585147 0.53161144 1.3920001
-0.58316189 0.52550095 1.376
-0.58054096 0.52550095 1.376
-0.49009997 0.52129996 1.365
-0.48749998 0.52129996 1.365
-0.7442686 0.53656572 1.3980001
-0.74160582 0.53656572 1.3980001
-0.73894292 0.53656572 1.3980001
-0.73628002 0.53656572 1.3980001
-0.73361725 0.53656572 1.3980001
-0.72781718 0.53426284 1.3920001
-0.72516578 0.53426284 1.3920001
-0.72251427 0.53426284 1.3920001
-0.71986288 0.53426284 1.3920001
-0.71721143 0.53426284 1.3920001
-0.71456003 0.53426284 1.3920001
-0.71190858 0.53426284 1.3920001
-0.70925719 0.53426284 1.3920001
-0.70660573 0.53426284 1.3920001
-0.70698863 0.53656572 1.3980001
-0.70432574 0.53656572 1.3980001
-0.70166296 0.53656572 1.3980001
-0.69600004 0.53426284 1.3920001
-0.67997813 0.53004098 1.381
-0.61952668 0.53234386 1.3870001
-0.61688483 0.53234386 1.3870001
-0.61424285 0.53234386 1.3870001
-0.611601 0.53234386 1.3870001
-0.61115432 0.53426284 1.3920001
-0.60850286 0.53426284 1.3920001
-0.60585147 0.53426284 1.3920001
-0.59364569 0.52812189 1.376
-0.59102482 0.52812189 1.376
-0.57792002 0.52812189 1.376
-0.73361725 0.53922862 1.3980001
-0.72781718 0.53691429 1.3920001
-0.72516578 0.53691429 1.3920001
-0.72251427 0.53691429 1.3920001
-0.71986288 0.53691429 1.3920001
-0.71721143 0.53691429 1.3920001
-0.71456003 0.53691429 1.3920001
-0.71190858 0.53691429 1.3920001
-0.70925719 0.53691429 1.3920001
-0.70660573 0.53691429 1.3920001
-0.70395434 0.53691429 1.3920001
-0.70432574 0.53922862 1.3980001
-0.69865149 0.53691429 1.3920001
-0.69600004 0.53691429 1.3920001
-0.67997813 0.53267139 1.381
-0.61688483 0.53498578 1.3870001
-0.61424285 0.53498578 1.3870001
-0.611601 0.53498578 1.3870001
-0.60895908 0.53498578 1.3870001
-0.60850286 0.53691429 1.3920001
-0.60585147 0.53691429 1.3920001
-0.59364569 0.53074288 1.376
-0.59102482 0.53074288 1.376
-0.58578289 0.53074288 1.376
-0.58054096 0.53074288 1.376
-0.57792002 0.53074288 1.376
-0.50977528 0.53074288 1.376
-0.50715429 0.53074288 1.376
-0.72781718 0.53956574 1.3920001
-0.72516578 0.53956574 1.3920001
-0.72251427 0.53956574 1.3920001
-0.71986288 0.53956574 1.3920001
-0.71721143 0.53956574 1.3920001
-0.71456003 0.53956574 1.3920001
-0.71190858 0.53956574 1.3920001
-0.70670956 0.53762764 1.3870001
-0.70406765 0.53762764 1.3870001
-0.70395434 0.53956574 1.3920001
-0.70130289 0.53956574 1.3920001
-0.69865149 0.53956574 1.3920001
-0.69350004 0.53762764 1.3870001
-0.61158574 0.53530192 1.381
-0.60895526 0.53530192 1.381
-0.60895908 0.53762764 1.3870001
-0.60850286 0.53956574 1.3920001
-0.59626669 0.53336382 1.376
-0.59364569 0.53336382 1.376
-0.59102482 0.53336382 1.376
-0.58840382 0.53336382 1.376
-0.58578289 0.53336382 1.376
-0.51016194 0.53103811 1.3700001
-0.50494289 0.53103811 1.3700001
-0.5023334 0.53103811 1.3700001
-0.71456003 0.54221714 1.3920001
-0.69865149 0.54221714 1.3920001
-0.69350004 0.54026955 1.3870001
-0.61158574 0.5379324 1.381
-0.60150862 0.53598475 1.376
-0.59888762 0.53598475 1.376
-0.59366667 0.53364772 1.3700001
-0.59105718 0.53364772 1.3700001
-0.59317237 0.5379324 1.381
-0.5905419 0.5379324 1.381
-0.58791143 0.5379324 1.381
-0.58528101 0.5379324 1.381
-0.52842861 0.53364772 1.3700001
-0.51277143 0.53364772 1.3700001
-0.51016194 0.53364772 1.3700001
-0.50755244 0.53364772 1.3700001
-0.50494289 0.53364772 1.3700001
-0.69600004 0.54486865 1.3920001
-0.69334859 0.54486865 1.3920001
-0.65392762 0.53860569 1.376
-0.60150862 0.53860569 1.376
-0.59627622 0.53625721 1.3700001
-0.58578289 0.53860569 1.376
-0.58316189 0.53860569 1.376
-0.54291141 0.54291141 1.3870001
-0.52581906 0.53625721 1.3700001
-0.52320957 0.53625721 1.3700001
-0.52060008 0.53625721 1.3700001
-0.51799053 0.53625721 1.3700001
-0.51538098 0.53625721 1.3700001
-0.51277143 0.53625721 1.3700001
-0.51016194 0.53625721 1.3700001
-0.50755244 0.53625721 1.3700001
-0.4552286 0.55191427 1.4100001
0.31667429 0.56835431 1.452
0.31944001 0.56835431 1.452
-0.69334859 0.54752004 1.3920001
-0.69069719 0.54752004 1.3920001
-0.65392762 0.54122669 1.376
-0.59888577 0.5388667 1.3700001
-0.59627622 0.5388667 1.3700001
-0.51610005 0.53689998 1.365
-0.51349998 0.53689998 1.365
-0.51090002 0.53689998 1.365
-0.4513543 0.54988003 1.3980001
0.30689049 0.56836671 1.4450001
0.30964285 0.56836671 1.4450001
0.31383905 0.56600666 1.439
0.31658 0.56600666 1.439
-0.59627622 0.54147625 1.3700001
-0.59366667 0.54147625 1.3700001
-0.49571145 0.53712863 1.3590001
-0.49312291 0.53712863 1.3590001
-0.49053431 0.53712863 1.3590001
-0.44941717 0.55017149 1.3920001
-0.49571145 0.5397172 1.3590001
-0.49312291 0.5397172 1.3590001
-0.49053431 0.5397172 1.3590001
-0.4964667 0.5403105 1.3540001
-0.49388763 0.5403105 1.3540001
-0.49312291 0.54230571 1.3590001
-0.57125908 0.5428896 1.3540001
-0.56867999 0.5428896 1.3540001
-0.56352198 0.5428896 1.3540001
-0.42654857 0.5629372 1.404
0.31022289 0.56053144 1.3980001
-0.57641715 0.54546863 1.3540001
-0.57383811 0.54546863 1.3540001
-0.57125908 0.54546863 1.3540001
-0.56867999 0.54546863 1.3540001
-0.56610101 0.54546863 1.3540001
-0.56352198 0.54546863 1.3540001
-0.56094289 0.54546863 1.3540001
-0.46580005 0.55191433 1.3700001
-0.4631905 0.55191433 1.3700001
-0.460581 0.55191433 1.3700001
-0.45797148 0.55191433 1.3700001
-0.45275241 0.55191433 1.3700001
-0.42922288 0.56561142 1.404
-0.42387432 0.56561142 1.404
0.28768003 0.56077719 1.3920001
0.29193047 0.55876291 1.3870001
0.29457241 0.55876291 1.3870001
0.2972143 0.55876291 1.3870001
0.29985622 0.55876291 1.3870001
0.3024981 0.55876291 1.3870001
0.30514002 0.55876291 1.3870001
0.31684572 0.56077719 1.3920001
-0.57899624 0.5480476 1.3540001
-0.57641715 0.5480476 1.3540001
-0.57383811 0.5480476 1.3540001
-0.57125908 0.5480476 1.3540001
-0.56867999 0.5480476 1.3540001
-0.56610101 0.5480476 1.3540001
-0.56352198 0.5480476 1.3540001
-0.55887151 0.54602379 1.3490001
-0.55630195 0.54602379 1.3490001
-0.52313054 0.54359525 1.3430001
-0.51194096 0.5480476 1.3540001
-0.50936192 0.5480476 1.3540001
-0.46669999 0.55250001 1.365
-0.46409997 0.55250001 1.365
-0.45629999 0.55250001 1.365
-0.45370001 0.55250001 1.365
-0.42387432 0.5682857 1.404
0.28928858 0.56140476 1.3870001
0.29193047 0.56140476 1.3870001
0.29457241 0.56140476 1.3870001
0.2972143 0.56140476 1.3870001
0.29985622 0.56140476 1.3870001
0.3024981 0.56140476 1.3870001
0.30514002 0.56140476 1.3870001
0.30778193 0.56140476 1.3870001
-0.58157527 0.5506267 1.3540001
-0.57899624 0.5506267 1.3540001
-0.57641715 0.5506267 1.3540001
-0.57383811 0.5506267 1.3540001
-0.57125908 0.5506267 1.3540001
-0.56867999 0.5506267 1.3540001
-0.56610101 0.5506267 1.3540001
-0.56352198 0.5506267 1.3540001
-0.55887151 0.5485934 1.3490001
-0.55630195 0.5485934 1.3490001
-0.5511629 0.5485934 1.3490001
-0.5485934 0.5485934 1.3490001
-0.53831524 0.5485934 1.3490001
-0.53574574 0.5485934 1.3490001
-0.51194096 0.5506267 1.3540001
-0.50748098 0.5485934 1.3490001
0.2649543 0.56852001 1.3980001
0.26761717 0.56852001 1.3980001
0.27028003 0.56852001 1.3980001
0.28400478 0.56404668 1.3870001
0.28664666 0.56404668 1.3870001
0.28928858 0.56404668 1.3870001
0.29066762 0.56160665 1.381
0.2932981 0.56160665 1.381
0.29592857 0.56160665 1.381
0.29855904 0.56160665 1.381
0.30118954 0.56160665 1.381
0.30382001 0.56160665 1.381
0.30645049 0.56160665 1.381
0.30908096 0.56160665 1.381
0.31171143 0.56160665 1.381
0.31434193 0.56160665 1.381
-0.58157527 0.55320573 1.3540001
-0.57899624 0.55320573 1.3540001
-0.57428861 0.5511629 1.3490001
-0.57171911 0.5511629 1.3490001
-0.57125908 0.55320573 1.3540001
-0.56867999 0.55320573 1.3540001
-0.56610101 0.55320573 1.3540001
-0.56352198 0.55320573 1.3540001
-0.56094289 0.55320573 1.3540001
-0.54088479 0.5511629 1.3490001
-0.53831524 0.5511629 1.3490001
-0.53574574 0.5511629 1.3490001
-0.51194096 0.55320573 1.3540001
-0.50748098 0.5511629 1.3490001
0.26116574 0.56873143 1.3920001
0.26381716 0.56873143 1.3920001
0.26646858 0.56873143 1.3920001
0.26912001 0.56873143 1.3920001
0.27177143 0.56873143 1.3920001
0.27442285 0.56873143 1.3920001
0.28540668 0.56423718 1.381
0.28803712 0.56423718 1.381
0.29066762 0.56423718 1.381
0.2932981 0.56423718 1.381
0.29592857 0.56423718 1.381
0.29855904 0.56423718 1.381
0.30118954 0.56423718 1.381
0.30382001 0.56423718 1.381
0.30645049 0.56423718 1.381
0.30908096 0.56423718 1.381
0.31171143 0.56423718 1.381
0.31434193 0.56423718 1.381
0.3169724 0.56423718 1.381
0.31960285 0.56423718 1.381
-0.57428861 0.55373245 1.3490001
-0.57171911 0.55373245 1.3490001
-0.57125908 0.55578476 1.3540001
-0.56610101 0.55578476 1.3540001
-0.56352198 0.55578476 1.3540001
-0.56094289 0.55578476 1.3540001
-0.53831524 0.55373245 1.3490001
-0.53574574 0.55373245 1.3490001
-0.51262003 0.55373245 1.3490001
-0.51194096 0.55578476 1.3540001
-0.50936192 0.55578476 1.3540001
0.26116574 0.57138288 1.3920001
0.26381716 0.57138288 1.3920001
0.26646858 0.57138288 1.3920001
0.26912001 0.57138288 1.3920001
0.27177143 0.57138288 1.3920001
0.27442285 0.57138288 1.3920001
0.28803712 0.56686759 1.381
0.29066762 0.56686759 1.381
0.2932981 0.56686759 1.381
0.29592857 0.56686759 1.381
0.29855904 0.56686759 1.381
0.30118954 0.56686759 1.381
0.30382001 0.56686759 1.381
0.30645049 0.56686759 1.381
0.30908096 0.56686759 1.381
0.31171143 0.56686759 1.381
0.31434193 0.56686759 1.381
0.3169724 0.56686759 1.381
0.31960285 0.56686759 1.381
0.32223332 0.56686759 1.381
0.33155906 0.56933051 1.3870001
-0.56610101 0.55836385 1.3540001
-0.56352198 0.55836385 1.3540001
-0.53574574 0.55630195 1.3490001
-0.51775908 0.55630195 1.3490001
-0.51518953 0.55630195 1.3490001
-0.51262003 0.55630195 1.3490001
0.26022762 0.57197243 1.3870001
0.26286954 0.57197243 1.3870001
0.26551145 0.57197243 1.3870001
0.26815334 0.57197243 1.3870001
0.27177143 0.57403427 1.3920001
0.27442285 0.57403427 1.3920001
0.28540668 0.56949812 1.381
0.28803712 0.56949812 1.381
0.29066762 0.56949812 1.381
0.2932981 0.56949812 1.381
0.29592857 0.56949812 1.381
0.29855904 0.56949812 1.381
0.30118954 0.56949812 1.381
0.30382001 0.56949812 1.381
0.30645049 0.56949812 1.381
0.30908096 0.56949812 1.381
0.31171143 0.56949812 1.381
0.31434193 0.56949812 1.381
0.3169724 0.56949812 1.381
0.31960285 0.56949812 1.381
0.32223332 0.56949812 1.381
0.32486382 0.56949812 1.381
0.33420095 0.57197243 1.3870001
-0.51775908 0.55887151 1.3490001
0.26022762 0.57461429 1.3870001
0.26286954 0.57461429 1.3870001
0.26551145 0.57461429 1.3870001
0.26815334 0.57461429 1.3870001
0.27079526 0.57461429 1.3870001
0.28540668 0.57212859 1.381
0.28803712 0.57212859 1.381
0.29066762 0.57212859 1.381
0.2932981 0.57212859 1.381
0.30118954 0.57212859 1.381
0.30382001 0.57212859 1.381
0.30645049 0.57212859 1.381
0.30796191 0.57005715 1.376
0.31058285 0.57005715 1.376
0.31320381 0.57005715 1.376
0.31582475 0.57005715 1.376
0.31844571 0.57005715 1.376
0.32223332 0.57212859 1.381
0.32486382 0.57212859 1.381
0.33684289 0.57461429 1.3870001
0.26022762 0.5772562 1.3870001
0.26286954 0.5772562 1.3870001
0.26551145 0.5772562 1.3870001
0.26815334 0.5772562 1.3870001
0.27079526 0.5772562 1.3870001
0.28540668 0.57475907 1.381
0.28803712 0.57475907 1.381
0.29066762 0.57475907 1.381
0.2932981 0.57475907 1.381
0.29592857 0.57475907 1.381
0.29855904 0.57475907 1.381
0.30118954 0.57475907 1.381
0.30645049 0.57475907 1.381
0.30796191 0.57267809 1.376
0.31058285 0.57267809 1.376
0.31320381 0.57267809 1.376
0.31582475 0.57267809 1.376
0.31844571 0.57267809 1.376
0.32223332 0.57475907 1.381
0.32486382 0.57475907 1.381
0.26551145 0.57989818 1.3870001
0.26815334 0.57989818 1.3870001
0.27079526 0.57989818 1.3870001
0.28540668 0.57738954 1.381
0.28803712 0.57738954 1.381
0.29066762 0.57738954 1.381
0.2932981 0.57738954 1.381
0.29592857 0.57738954 1.381
0.29855904 0.57738954 1.381
0.30118954 0.57738954 1.381
0.30796191 0.57529908 1.376
0.31058285 0.57529908 1.376
0.31320381 0.57529908 1.376
0.31582475 0.57529908 1.376
0.31844571 0.57529908 1.376
0.32106668 0.57529908 1.376
0.32368761 0.57529908 1.376
0.32630858 0.57529908 1.376
0.26815334 0.58254004 1.3870001
0.27079526 0.58254004 1.3870001
0.27343714 0.58254004 1.3870001
0.28014573 0.58002001 1.381
0.28277621 0.58002001 1.381
0.28540668 0.58002001 1.381
0.28803712 0.58002001 1.381
0.29066762 0.58002001 1.381
0.2932981 0.58002001 1.381
0.29592857 0.58002001 1.381
0.29855904 0.58002001 1.381
0.30118954 0.58002001 1.381
0.31058285 0.57792002 1.376
0.31320381 0.57792002 1.376
0.31582475 0.57792002 1.376
0.31844571 0.57792002 1.376
0.32106668 0.57792002 1.376
0.32368761 0.57792002 1.376
0.32630858 0.57792002 1.376
0.32892951 0.57792002 1.376
-0.50936192 0.57125908 1.3540001
0.26815334 0.58518195 1.3870001
0.27079526 0.58518195 1.3870001
0.27343714 0.58518195 1.3870001
0.28014573 0.58265048 1.381
0.28277621 0.58265048 1.381
0.28540668 0.58265048 1.381
0.28803712 0.58265048 1.381
0.29066762 0.58265048 1.381
0.2932981 0.58265048 1.381
0.29592857 0.58265048 1.381
0.29855904 0.58265048 1.381
0.30118954 0.58265048 1.381
0.31058285 0.58054096 1.376
0.31320381 0.58054096 1.376
0.31582475 0.58054096 1.376
0.31844571 0.58054096 1.376
0.32106668 0.58054096 1.376
0.32227623 0.57800955 1.3700001
0.32488576 0.57800955 1.3700001
0.32892951 0.58054096 1.376
0.27488476 0.58528101 1.381
0.27751526 0.58528101 1.381
0.28014573 0.58528101 1.381
0.28277621 0.58528101 1.381
0.28540668 0.58528101 1.381
0.28803712 0.58528101 1.381
0.29066762 0.58528101 1.381
0.2932981 0.58528101 1.381
0.29592857 0.58528101 1.381
0.29855904 0.58528101 1.381
0.30118954 0.58528101 1.381
0.31058285 0.58316189 1.376
0.31320381 0.58316189 1.376
0.31582475 0.58316189 1.376
0.31844571 0.58316189 1.376
0.32227623 0.5806191 1.3700001
0.32488576 0.5806191 1.3700001
0.32892951 0.58316189 1.376
0.34476858 0.58782381 1.3870001
0.3474105 0.58782381 1.3870001
0.35005239 0.58782381 1.3870001
0.27488476 0.58791143 1.381
