# .PCD v0.7 - Point Cloud Data file format
VERSION 0.7
FIELDS x y z
SIZE 4 4 4
TYPE F F F
COUNT 1 1 1
WIDTH 1393
HEIGHT 1
VIEWPOINT 0 0 0 1 0 0 0
POINTS 1393
DATA ascii
0.32210034 0.55536711 1.4949005
0.33477122 0.55810386 1.4999393
0.33795506 0.55799246 1.4988595
0.33800012 0.56134915 1.4986457
0.33169264 0.5617137 1.4912519
0.34122878 0.56459433 1.497352
0.34441262 0.56448293 1.4962722
0.34759647 0.56437147 1.4951924
0.36033183 0.56392574 1.4908732
0.36351568 0.56381428 1.4897934
0.34127384 0.56795102 1.4971383
0.34445769 0.56783962 1.4960585
0.34764153 0.56772816 1.4949785
0.35082537 0.5676167 1.4938987
0.35400921 0.5675053 1.492819
0.35719305 0.56739384 1.4917392
0.35391074 0.56427729 1.4835191
0.35707825 0.56416643 1.4824449
0.360246 0.56405556 1.4813706
0.31597513 0.56569749 1.4868551
0.31912643 0.56558716 1.4857863
0.31594139 0.56244999 1.4775343
0.31907648 0.56234026 1.4764709
0.33488351 0.5650357 1.4804423
0.33803481 0.56492537 1.4793736
0.34118623 0.5648151 1.4783047
0.35078782 0.56772774 1.4843807
0.34102255 0.56157213 1.4690279
0.34415776 0.5614624 1.4679646
0.34729296 0.56135267 1.4669013
0.35042816 0.56124294 1.465838
0.3128683 0.56913024 1.4877123
0.31035286 0.56304955 1.4709396
0.31347352 0.5629403 1.4698812
0.32225591 0.5655359 1.4751971
0.32539111 0.56542617 1.4741338
0.32852632 0.56531644 1.4730705
0.3316614 0.56520671 1.4720073
0.33479661 0.56509697 1.4709439
0.33793169 0.56498724 1.4698806
0.3410669 0.56487751 1.4688174
0.33843952 0.5620665 1.461414
0.34156018 0.5619573 1.4603555
0.34468096 0.56184804 1.4592972
0.31039697 0.56633979 1.4707299
0.31351763 0.56623054 1.4696716
0.31663841 0.56612134 1.4686131
0.32543546 0.56873155 1.4739232
0.32287985 0.56590289 1.4664963
0.32600051 0.56579363 1.465438
0.32912141 0.56568444 1.4643795
0.33224207 0.56557518 1.4633212
0.32889611 0.5624094 1.4551258
0.33200055 0.56230074 1.454073
0.335105 0.56219208 1.45302
0.31044096 0.56962997 1.4705204
0.31356174 0.56952071 1.4694619
0.3166824 0.56941152 1.4684036
0.31980318 0.56930226 1.4673452
0.32292396 0.56919307 1.4662868
0.32604462 0.56908381 1.4652283
0.32273084 0.56589985 1.4570231
0.32583529 0.56579119 1.4559702
0.32247263 0.56260884 1.4477813
0.32864922 0.56239265 1.4456866
0.30414766 0.56982481 1.463132
0.30725199 0.56971616 1.462079
0.31672651 0.57270175 1.468194
0.31984729 0.5725925 1.4671355
0.31656569 0.56939018 1.4589204
0.31967026 0.56928152 1.4578675
0.32277471 0.56917286 1.4568145
0.31942803 0.56597281 1.4486213
0.31040055 0.57288063 1.4608177
0.31350499 0.57277197 1.4597647
0.31660956 0.57266331 1.4587119
0.30407387 0.57302523 1.4534435
-0.44687942 0.53195286 1.4962274
-0.44415891 0.53185761 1.4953047
-0.43323848 0.53434491 1.4914312
-0.47235602 0.53361917 1.4910644
-0.43508965 0.53498805 1.4856752
-0.43237996 0.53489316 1.4847562
-0.47771204 0.53665149 1.4927127
-0.4723179 0.53646266 1.4908834
-0.46962085 0.53636825 1.4899685
-0.51727176 0.53818107 1.4987131
-0.4992505 0.54025012 1.4998493
-0.49655342 0.54015571 1.4989346
-0.48237398 0.53695965 1.4868774
-0.47968954 0.53686571 1.485967
-0.47700509 0.53677177 1.4850565
-0.45200723 0.53358275 1.4703656
-0.44665998 0.53339559 1.4685521
-0.44210729 0.53555036 1.4732208
-0.43942282 0.53545642 1.4723104
-0.4386391 0.53311485 1.4658318
-0.52415752 0.53892809 1.4946688
-0.5214839 0.53883451 1.493762
-0.51881027 0.53874093 1.4928553
-0.51454943 0.54091734 1.4976224
-0.51186502 0.5408234 1.496712
-0.50918055 0.5407294 1.4958014
-0.50649607 0.54063547 1.494891
-0.50381166 0.54054153 1.4939806
-0.50112718 0.54044759 1.4930701
-0.48405305 0.53752446 1.4810673
-0.48137942 0.53743088 1.4801605
-0.47870579 0.5373373 1.4792538
-0.47603217 0.53724372 1.4783469
-0.45914185 0.53432709 1.4664067
-0.45647904 0.53423387 1.4655036
-0.43741944 0.53085363 1.451792
-0.53366303 0.53974396 1.4915146
-0.5310002 0.53965074 1.4906116
-0.52833736 0.53955758 1.4897084
-0.52567458 0.53946435 1.4888053
-0.52144611 0.54165328 1.4935825
-0.51877248 0.5415597 1.4926757
-0.51609886 0.54146612 1.491769
-0.51342523 0.54137254 1.4908621
-0.51075161 0.54127902 1.4899554
-0.50807798 0.54118544 1.4890486
-0.50540435 0.54109186 1.4881419
-0.50273073 0.54099828 1.4872351
-0.48306957 0.53797323 1.4743557
-0.48040676 0.53788 1.4734527
-0.47774395 0.53778678 1.4725496
-0.45858356 0.53438979 1.4588045
-0.45778027 0.5320248 1.4523207
-0.44458342 0.53156286 1.447845
-0.44194403 0.53147054 1.4469498
-0.53628826 0.54264456 1.4922389
-0.5354017 0.53987378 1.4846922
-0.53275156 0.53978103 1.4837935
-0.52829981 0.54236495 1.4895296
-0.52563697 0.54227179 1.4886265
-0.52480096 0.5395028 1.481097
-0.52215075 0.53941 1.4801981
-0.51950061 0.53931725 1.4792993
-0.51498568 0.54189897 1.4850141
-0.5123229 0.5418058 1.484111
-0.50966012 0.54171258 1.4832079
-0.50699729 0.54161936 1.4823048
-0.50433445 0.5415262 1.4814017
-0.49034846 0.53829694 1.4694123
-0.48239788 0.5380187 1.4667159
-0.47974768 0.5379259 1.4658171
-0.44644728 0.53206372 1.4421017
-0.44381875 0.53197175 1.4412102
-0.53536427 0.54266787 1.4845142
-0.53271413 0.54257512 1.4836154
-0.53006393 0.54248238 1.4827167
-0.52741373 0.54238963 1.4818178
-0.51416278 0.54192585 1.4773238
-0.48937824 0.53869867 1.462708
-0.48673886 0.53860629 1.4618129
-0.48409951 0.5385139 1.4609177
-0.48146012 0.53842151 1.4600226
-0.47882074 0.53832912 1.4591274
-0.44641018 0.53483498 1.4419252
-0.44378161 0.53474301 1.4410337
0.3022719 0.58610982 1.3919051
-0.57380098 0.54443741 1.4911755
-0.57116163 0.54434502 1.4902804
-0.56712919 0.54657501 1.4951221
-0.53948915 0.54323649 1.4795386
-0.53684974 0.54314417 1.4786434
-0.53421032 0.54305178 1.4777483
-0.53157103 0.54295939 1.4768531
-0.52893162 0.542867 1.475958
-0.5262922 0.54277462 1.4750628
-0.50420135 0.53963023 1.4613612
-0.50157279 0.53953826 1.4604697
-0.48580143 0.53898627 1.4551208
-0.48317289 0.53889424 1.4542294
-0.47878346 0.54111183 1.4589502
-0.47791576 0.53871024 1.4524463
-0.44827452 0.53530163 1.436184
-0.57376373 0.54722005 1.4909983
-0.57112432 0.54712766 1.4901031
-0.56848496 0.54703534 1.489208
-0.56444156 0.54927635 1.4940453
-0.56014073 0.55190551 1.4998302
-0.55747789 0.55181235 1.4989271
-0.54622114 0.54387355 1.4754484
-0.54359257 0.54378152 1.4745569
-0.54096401 0.54368955 1.4736654
-0.5383355 0.54359752 1.4727739
-0.53570694 0.54350555 1.4718825
-0.53307837 0.54341352 1.4709909
-0.51368111 0.54035205 1.4582036
-0.51106334 0.54026043 1.4573157
-0.50844562 0.54016876 1.4564279
-0.50059235 0.53989393 1.4537644
-0.4947432 0.53690958 1.4445373
-0.48692784 0.53663605 1.4418867
-0.48226821 0.53925258 1.4475498
-0.47965047 0.53916097 1.4466619
-0.47703272 0.53906935 1.4457742
-0.46014065 0.5333159 1.4265931
0.31429106 0.59198356 1.3874565
-0.57772678 0.5477488 1.4859695
-0.57509822 0.54765677 1.4850781
-0.57246965 0.5475648 1.4841866
-0.56844771 0.54981798 1.4890307
-0.5658083 0.54972559 1.4881356
-0.56316894 0.5496332 1.4872404
-0.55910373 0.55188495 1.4920696
-0.55645359 0.5517922 1.4911709
-0.55029249 0.54439461 1.4704571
-0.54767478 0.54430294 1.4695693
-0.54505706 0.54421133 1.4686815
-0.54092693 0.54646081 1.4734888
-0.53982157 0.5440281 1.4669058
-0.53720379 0.54393649 1.4660181
-0.51554739 0.5403856 1.4514306
-0.51294225 0.54029441 1.450547
-0.51033711 0.54020321 1.4496634
-0.50773203 0.54011208 1.4487799
-0.50512689 0.54002088 1.4478964
-0.4973115 0.53974736 1.4452457
-0.49470639 0.53965616 1.4443623
0.31134945 0.59523368 1.3882681
-0.58031821 0.55061203 1.4866846
-0.57768965 0.55052006 1.4857931
-0.57506108 0.55042809 1.4849015
-0.57243252 0.55033606 1.4840101
-0.56980395 0.55024409 1.4831187
-0.56717539 0.55015206 1.4822271
-0.56454682 0.55006009 1.4813356
-0.54416692 0.54413509 1.4609745
-0.54156178 0.5440439 1.4600909
-0.53895664 0.54395276 1.4592073
-0.53635156 0.54386157 1.4583238
-0.51714206 0.54078382 1.4456016
-0.51454782 0.54069304 1.4447217
-0.51195347 0.54060221 1.4438418
-0.50935918 0.54051143 1.4429619
-0.50676489 0.54042059 1.4420822
-0.48860472 0.53978503 1.4359231
-0.48601043 0.53969425 1.4350432
-0.46895167 0.53428638 1.4168429
-0.58320695 0.54824936 1.4740524
-0.57901371 0.55092216 1.4798714
-0.57639599 0.55083054 1.4789836
-0.57377827 0.55073893 1.4780958
-0.56976682 0.55301535 1.4829421
-0.56713825 0.55292332 1.4820505
-0.56592506 0.55046409 1.4754324
-0.54152501 0.54679048 1.4599159
-0.53891987 0.54669935 1.4590324
-0.53631473 0.54660815 1.4581488
-0.51873708 0.54115933 1.439774
-0.51615357 0.54106891 1.4388978
-0.51357007 0.54097849 1.4380217
-0.51098663 0.54088807 1.4371455
-0.50840312 0.54079765 1.4362693
-0.50413394 0.54306501 1.441028
-0.49031872 0.54016471 1.430136
-0.58056504 0.55090475 1.472994
-0.57635903 0.55359042 1.4788078
-0.57374132 0.5534988 1.4779199
-0.57112354 0.55340719 1.4770322
-0.56850576 0.55331558 1.4761443
-0.54301184 0.54716218 1.4540517
-0.54041755 0.54707134 1.4531718
-0.5161171 0.54379267 1.4387244
-0.51353359 0.54370224 1.4378482
-0.50578314 0.54343098 1.4352195
-0.58188975 0.55125934 1.4670755
-0.57792312 0.55356008 1.4719354
-0.57531798 0.55346894 1.4710519
-0.38645202 0.57288134 1.4731879
-0.38373154 0.57278609 1.4722654
-0.38101101 0.5726909 1.4713427
-0.60001254 0.54972804 1.4606507
-0.59743989 0.54963797 1.4597782
-0.58444744 0.55408531 1.4677811
-0.58185315 0.55399448 1.4669012
-0.57925886 0.5539037 1.4660213
-0.57666457 0.55381286 1.4651415
-0.39390862 0.57356077 1.4693425
-0.39119893 0.57346594 1.4684235
-0.38848925 0.57337111 1.4675045
-0.38577956 0.57327628 1.4665855
-0.38306987 0.57318145 1.4656665
-0.63484806 0.55612332 1.4785088
-0.63226461 0.5560329 1.4776326
-0.62851399 0.55836409 1.4825646
-0.62474173 0.56069446 1.4874891
-0.62074971 0.56342757 1.4933732
-0.61953151 0.56051213 1.4857221
-0.61692637 0.56042093 1.4848385
-0.6128965 0.56315273 1.4907098
-0.59997618 0.5524404 1.4604778
-0.58576185 0.55440533 1.4618611
-0.58317834 0.55431491 1.4609849
-0.58059484 0.55422449 1.4601088
-0.57801139 0.55413407 1.4592326
-0.57542789 0.55404365 1.4583564
-0.56236935 0.53675991 1.4115335
-0.39626682 0.5736286 1.4627353
-0.39356977 0.57353425 1.4618206
-0.39087266 0.57343984 1.4609059
-0.38817561 0.57334542 1.4599911
-0.38547856 0.57325107 1.4590764
-0.68741065 0.55821413 1.489971
-0.68483794 0.55812413 1.4890984
-0.68226528 0.55803406 1.4882259
-0.68065441 0.5555039 1.4814763
-0.67809254 0.5554142 1.4806075
-0.67454731 0.55776393 1.4856083
-0.63739508 0.55893749 1.4792114
-0.63481158 0.55884707 1.4783353
-0.63222808 0.55875665 1.4774591
-0.62964463 0.55866623 1.4765829
-0.62706113 0.55857581 1.4757067
-0.62447762 0.55848539 1.4748305
-0.61810017 0.560736 1.4788709
-0.58572531 0.55712909 1.4616876
-0.5831418 0.55703866 1.4608114
-0.58193117 0.5545224 1.4541974
-0.57935852 0.55443239 1.4533249
-0.39594096 0.57357591 1.4552194
-0.39325649 0.57348198 1.454309
-0.69086564 0.55856353 1.4847797
-0.68923318 0.55602109 1.4780234
-0.68668222 0.55593181 1.4771582
-0.68318009 0.55829453 1.4821731
-0.68158013 0.55575323 1.4754277
-0.67902905 0.55566394 1.4745626
-0.67549449 0.55802554 1.4795666
-0.67293262 0.55793583 1.4786977
-0.67037082 0.55784619 1.4778289
-0.65406084 0.54774851 1.4485205
-0.6515404 0.54766029 1.4476657
-0.64902008 0.54757208 1.446811
-0.64649963 0.54748386 1.4459561
-0.63735861 0.56166124 1.479038
-0.6347751 0.56157082 1.4781618
-0.6321916 0.5614804 1.4772856
-0.62960815 0.56138998 1.4764094
-0.62702465 0.56129956 1.4755332
-0.62444115 0.56120914 1.4746571
-0.58961284 0.55750489 1.4566422
-0.58704019 0.55741489 1.4557697
-0.58446753 0.55732483 1.4548972
-0.70608866 0.55472457 1.4722105
-0.6950559 0.55683517 1.4746708
-0.6917482 0.55879992 1.4787172
-0.68919718 0.55871063 1.477852
-0.68664616 0.55862135 1.4769869
-0.68409514 0.55853206 1.4761217
-0.68234575 0.55639029 1.4703602
-0.67980379 0.5563013 1.469498
-0.67644203 0.5582642 1.4735261
-0.67471969 0.55612338 1.4677738
-0.67217767 0.55603439 1.4669117
-0.6540252 0.55040574 1.4483513
-0.65150481 0.55031753 1.4474964
-0.64898443 0.55022931 1.4466417
-0.64533979 0.55259836 1.4516075
-0.64394367 0.55005288 1.444932
-0.64142329 0.54996473 1.4440773
-0.63331187 0.56174797 1.4713024
-0.63073927 0.56165791 1.4704299
-0.62816656 0.5615679 1.4695573
-0.87133598 0.55147374 1.4991573
-0.86885536 0.55138689 1.4983159
-0.81393731 0.55155486 1.4848582
-0.71531129 0.55270112 1.462778
-0.69756204 0.55960417 1.4753622
-0.69501996 0.55951518 1.4745001
-0.69247794 0.55942619 1.4736379
-0.68993592 0.55933726 1.4727758
-0.6873939 0.55924827 1.4719137
-0.68485188 0.55915928 1.4710516
-0.68230987 0.55907035 1.4701895
-0.67976785 0.55898136 1.4693273
-0.67722583 0.55889237 1.4684651
-0.67468381 0.55880344 1.467603
-0.67214179 0.55871445 1.4667408
-0.66959977 0.55862546 1.4658787
-0.64894885 0.55288655 1.4464724
-0.64642847 0.55279833 1.4456176
-0.64390808 0.55271012 1.4447627
-0.6413877 0.55262196 1.443908
-0.63187063 0.56190312 1.4644519
-0.62813026 0.56428021 1.4693846
-0.3953439 0.56365705 1.4090384
-0.39273876 0.56356591 1.4081548
-0.90605032 0.55068636 1.4994082
-0.90358943 0.55060017 1.4985735
-0.871301 0.55408913 1.4989907
-0.85191071 0.54879141 1.4810466
-0.84944975 0.54870534 1.480212
-0.84698892 0.54861915 1.4793774
-0.83879948 0.55505115 1.493135
-0.81424433 0.55209219 1.4796398
-0.73284292 0.55596173 1.4685674
-0.73033333 0.55587393 1.4677162
-0.72782373 0.55578607 1.4668651
-0.71778548 0.55543476 1.4634606
-0.70688218 0.55757266 1.4659634
-0.69842356 0.55979615 1.4692951
-0.69589233 0.55970752 1.4684367
-0.69336116 0.55961895 1.4675783
-0.68990004 0.56201732 1.4726051
-0.68829876 0.55944175 1.4658613
-0.68576753 0.55935317 1.4650029
-0.68323636 0.5592646 1.4641443
-0.68070513 0.55917597 1.4632859
-0.6781739 0.5590874 1.4624275
-0.67564273 0.55899882 1.461569
-0.64249837 0.5527997 1.4379268
-0.62927258 0.56451446 1.463411
-0.62552118 0.56690252 1.4683392
-0.41114557 0.56989729 1.4214691
-0.40852782 0.56980568 1.4205813
-0.40591007 0.56971407 1.4196935
-0.40329236 0.56962246 1.4188056
-0.40067458 0.56953084 1.4179178
-0.39530712 0.56640363 1.4088634
-0.39270198 0.56631249 1.4079798
-0.39009684 0.5662213 1.4070964
-0.93044561 0.54949588 1.4961619
-0.9280045 0.54941046 1.495334
-0.92562675 0.55143631 1.4996942
-0.92317677 0.55135053 1.4988632
-0.92072666 0.55126482 1.4980323
-0.90601557 0.55328083 1.4992429
-0.90355468 0.55319464 1.4984083
-0.90109372 0.55310851 1.4975736
-0.89863288 0.55302238 1.496739
-0.89118725 0.5548709 1.4993805
-0.88871735 0.55478442 1.4985429
-0.87374669 0.55679137 1.4996654
-0.87126595 0.55670458 1.4988241
-0.85212451 0.54886377 1.4747658
-0.8496744 0.548778 1.4739348
-0.84722435 0.54869223 1.4731039
-0.84449327 0.55112755 1.4783775
-0.82880539 0.55732751 1.48959
-0.82631564 0.55724037 1.4887457
-0.81709003 0.55227751 1.4742503
-0.81462014 0.55219108 1.4734126
-0.8117286 0.5546208 1.4786319
-0.74093997 0.55678314 1.4659904
-0.73843944 0.55669564 1.4651424
-0.73343831 0.55652058 1.4634461
-0.73093772 0.55643308 1.4625981
-0.72593665 0.55625802 1.460902
-0.70520222 0.55764139 1.4590364
-0.70018303 0.55746573 1.4573342
-0.69676507 0.55987704 1.4623749
-0.69424462 0.55978882 1.4615201
-0.69079423 0.56219894 1.4665498
-0.68826306 0.56211036 1.4656913
-0.68573177 0.56202179 1.4648329
-0.6832006 0.56193316 1.4639744
-0.68066943 0.56184459 1.4631159
-0.66755861 0.55632389 1.4462695
-0.66504908 0.55623603 1.4454184
-0.66253948 0.55614823 1.4445672
-0.66002989 0.55606037 1.443716
-0.64591885 0.55345744 1.4337637
-0.64341825 0.55336994 1.4329157
-0.63995337 0.55535769 1.4369071
-0.63041532 0.5647257 1.4574387
-0.62667453 0.56712568 1.46237
-0.62531322 0.56454712 1.4557083
-0.5140416 0.54420185 1.3776706
-0.40829593 0.56960607 1.4131061
-0.40569079 0.56951487 1.4122226
-0.40308565 0.56942374 1.411339
-0.40048057 0.56933254 1.4104555
-0.39527029 0.56915015 1.4086884
-0.39266521 0.56905901 1.407805
-0.39006007 0.56896782 1.4069214
-0.93033004 0.5499481 1.4908044
-0.92789793 0.54986298 1.4899796
-0.925529 0.5518986 1.4943422
-0.92308795 0.55181313 1.4935143
-0.91824198 0.55376214 1.4970368
-0.91579187 0.55367643 1.4962058
-0.91334182 0.55359066 1.4953749
-0.90844166 0.55596143 1.4999123
-0.90599155 0.5533334 1.492882
-0.90354156 0.55324763 1.4920511
-0.90109146 0.55316192 1.4912201
-0.89864135 0.55307615 1.4903892
-0.89613724 0.55553079 1.4957392
-0.89367634 0.55544466 1.4949045
-0.89121544 0.55535853 1.4940699
-0.88875461 0.5552724 1.4932353
-0.88629365 0.55518627 1.4924006
-0.88383281 0.55510014 1.4915661
-0.88127279 0.55712914 1.4958639
-0.8788029 0.55704272 1.4950262
-0.87633294 0.55695623 1.4941885
-0.8738631 0.5568698 1.493351
-0.85208988 0.55144686 1.4746011
-0.84963977 0.55136108 1.4737703
-0.84718978 0.55127537 1.4729393
-0.83402002 0.55801761 1.4860373
-0.83153933 0.55793077 1.485196
-0.82905865 0.55784392 1.4843546
-0.8265779 0.55775714 1.4835132
-0.82161641 0.55758345 1.4818306
-0.81952512 0.554968 1.4749221
-0.81705517 0.55488157 1.4740844
-0.81458521 0.55479509 1.4732467
-0.74340522 0.55950701 1.4666705
-0.74090469 0.55941951 1.4658225
-0.73840415 0.55933201 1.4649744
-0.73590356 0.55924445 1.4641263
-0.73340297 0.55915695 1.4632783
-0.73090243 0.55906945 1.4624301
-0.7284019 0.5589819 1.4615821
-0.72590131 0.5588944 1.460734
-0.72340077 0.5588069 1.459886
-0.71839964 0.55863184 1.4581898
-0.71589911 0.55854434 1.4573418
-0.71339858 0.55845684 1.4564936
-0.71089798 0.55836928 1.4556456
-0.70839739 0.55828178 1.4547975
-0.70516676 0.56028724 1.4588678
-0.70265722 0.56019938 1.4580168
-0.70014763 0.56011158 1.4571656
-0.69763803 0.56002373 1.4563144
-0.69512844 0.55993593 1.4554633
-0.69168866 0.5623579 1.4604961
-0.68916833 0.56226969 1.4596412
-0.68664789 0.56218147 1.4587865
-0.68412751 0.56209326 1.4579316
-0.66838855 0.55688149 1.4412284
-0.66588795 0.55679393 1.4403803
-0.66338742 0.55670643 1.4395323
-0.66088688 0.55661893 1.4386842
-0.65838629 0.55653143 1.4378362
-0.64588356 0.55609381 1.4335958
-0.64338297 0.55600631 1.4327477
-0.64088243 0.55591875 1.4318997
-0.63838184 0.55583125 1.4310516
-0.62782824 0.56732595 1.4564022
-0.62627769 0.56515318 1.4507103
-0.62373567 0.56506419 1.4498482
-0.54455423 0.55466586 1.4043957
-0.41607448 0.57262617 1.4155817
-0.41346937 0.57253498 1.4146982
-0.41086423 0.57244384 1.4138147
-0.40825909 0.57235265 1.4129311
-0.40565401 0.57226145 1.4120476
-0.40304887 0.57217032 1.411164
-0.40044373 0.57207912 1.4102806
-0.39783865 0.57198793 1.409397
-0.40375715 0.5620259 1.3866073
-0.92543155 0.55234194 1.4889914
-0.9229995 0.55225682 1.4881666
-0.92056745 0.55217171 1.4873418
-0.9157303 0.55413049 1.4908667
-0.91328919 0.55404508 1.4900388
-0.91084814 0.55395961 1.4892108
-0.90840703 0.5560022 1.4935485
-0.90595698 0.55591649 1.4927175
-0.90352499 0.55370331 1.4867272
-0.90108395 0.55361789 1.4858993
-0.89860678 0.55565923 1.4902247
-0.89615667 0.55557346 1.4893937
-0.89364159 0.55803913 1.4947393
-0.89125651 0.55540198 1.4877318
-0.88880646 0.55531621 1.4869009
-0.88635635 0.55523044 1.4860699
-0.8839063 0.55514473 1.485239
-0.88145626 0.55505896 1.484408
-0.87887627 0.55752236 1.4897316
-0.87641537 0.55743623 1.488897
-0.87395447 0.5573501 1.4880624
-0.87135828 0.55938739 1.4923474
-0.85226268 0.55190915 1.4693415
-0.84982163 0.55182374 1.4685136
-0.84738058 0.55173826 1.4676857
-0.84493947 0.55165285 1.4668578
-0.842255 0.55368692 1.4711128
-0.83980489 0.55360121 1.470282
-0.83704108 0.55605811 1.475543
-0.83430958 0.55809069 1.4797822
-0.83183968 0.55800426 1.4789445
-0.82936978 0.55791777 1.4781069
-0.82689989 0.55783135 1.4772692
-0.8247366 0.55562747 1.47137
-0.8222757 0.55554134 1.4705354
-0.82020432 0.55291516 1.4636343
-0.74906337 0.55978888 1.4622349
-0.74467897 0.55750734 1.4555824
-0.74219823 0.55742049 1.454741
-0.73971748 0.55733371 1.4538996
-0.7366147 0.55935317 1.4580128
-0.73412496 0.55926603 1.4571685
-0.73163521 0.55917889 1.4563241
-0.72836655 0.56161827 1.4614141
-0.72665572 0.5590046 1.4546353
-0.72416604 0.55891746 1.4537909
-0.72086489 0.56135571 1.4588699
-0.71918654 0.55874324 1.4521021
-0.7166968 0.5586561 1.4512577
-0.71420705 0.55856895 1.4504132
-0.71171731 0.55848181 1.4495689
-0.70922756 0.55839467 1.4487245
-0.70586157 0.56083059 1.4537815
-0.70336103 0.56074309 1.4529334
-0.70086044 0.56065553 1.4520854
-0.69835991 0.56056803 1.4512373
-0.69585931 0.56048054 1.4503893
-0.69258344 0.56249392 1.4544437
-0.68913269 0.56492686 1.4594719
-0.68756431 0.56231827 1.4527414
-0.68505472 0.56223047 1.4518902
-0.68157148 0.56466222 1.4569076
-0.67686099 0.55726182 1.4377472
-0.67437124 0.55717468 1.4369029
-0.6718815 0.55708754 1.4360584
-0.66939175 0.5570004 1.435214
-0.66690201 0.55691326 1.4343697
-0.66441226 0.55682611 1.4335252
-0.66192251 0.55673897 1.4326808
-0.658351 0.55916774 1.4376682
-0.64584821 0.55873013 1.4334279
-0.64334762 0.55864263 1.4325798
-0.64084709 0.55855513 1.4317317
-0.63951486 0.55595475 1.4250813
-0.63702512 0.55586761 1.4242369
-0.63334543 0.55829257 1.4291875
-0.62491143 0.56523287 1.4438897
-0.6223802 0.5651443 1.4430313
-0.61984897 0.56505567 1.4421728
-0.6173178 0.5649671 1.4413143
-0.5495379 0.55748743 1.4059294
-0.54832649 0.55531693 1.4003532
-0.54582596 0.55522943 1.3995051
-0.54332542 0.55514187 1.3986571
-0.54082483 0.55505437 1.397809
-0.42217129 0.56792617 1.3988912
-0.41959861 0.56783611 1.3980187
-0.41237628 0.57013714 1.401768
-0.40979278 0.57004672 1.4008918
-0.40930793 0.56747597 1.3945286
-0.40884468 0.56490618 1.388173
-0.40628284 0.56481647 1.3873041
-0.40372097 0.56472683 1.3864353
-0.91810107 0.55465066 1.4863536
-0.91566902 0.55456555 1.4855287
-0.91323698 0.55448043 1.4847039
-0.91081369 0.55653322 1.4890469
-0.90837264 0.55644774 1.488219
-0.90593159 0.55636233 1.4873911
-0.90350878 0.55413991 1.4814045
-0.90107673 0.5540548 1.4805797
-0.89864469 0.55396968 1.4797549
-0.89616734 0.55602056 1.4840796
-0.89372629 0.55593514 1.4832517
-0.89128518 0.55584973 1.4824238
-0.88884413 0.55576426 1.4815959
-0.88640308 0.55567884 1.480768
-0.88396204 0.55559337 1.4799401
-0.88142169 0.5576421 1.4842435
-0.87897158 0.55755633 1.4834125
-0.87652147 0.55747056 1.4825816
-0.87407136 0.55738479 1.4817506
-0.87145883 0.5598585 1.4870625
-0.86899793 0.55977237 1.4862278
-0.85222816 0.5544827 1.4691775
-0.84978712 0.55439728 1.4683496
-0.84734607 0.55431187 1.4675218
-0.84490502 0.5542264 1.4666939
-0.84246397 0.55414099 1.465866
-0.84002292 0.55405557 1.4650381
-0.83732021 0.55609852 1.4692864
-0.83487022 0.55601281 1.4684554
-0.83269966 0.55379921 1.4625543
-0.83025867 0.5537138 1.4617265
-0.82781756 0.55362839 1.4608986
-0.82537651 0.55354291 1.4600707
-0.82293546 0.5534575 1.4592428
-0.82049441 0.55337203 1.4584149
-0.81805336 0.55328661 1.457587
-0.74464393 0.56012273 1.4554157
-0.74216318 0.56003594 1.4545743
-0.73968244 0.5599491 1.4537331
-0.7379483 0.55732328 1.4469471
-0.73547846 0.55723685 1.4461094
-0.73224032 0.55968863 1.4512091
-0.72975957 0.55960178 1.4503677
-0.72727883 0.559515 1.4495263
-0.72479808 0.55942816 1.4486849
-0.7223174 0.55934131 1.4478437
-0.71983665 0.55925453 1.4470023
-0.71735597 0.55916768 1.4461609
-0.71487522 0.55908084 1.4453197
-0.71239448 0.55899405 1.4444783
-0.70991373 0.55890721 1.4436369
-0.70743304 0.55882037 1.4427956
-0.7049523 0.55873358 1.4419543
-0.70247161 0.55864674 1.4411129
-0.69999087 0.55855989 1.4402716
-0.69674373 0.56058383 1.4443352
-0.69425398 0.56049669 1.4434909
-0.6908229 0.56294179 1.4485252
-0.68832237 0.56285429 1.4476771
-0.68582177 0.56276679 1.4468291
-0.67682582 0.55988669 1.43758
-0.67184633 0.55971241 1.4358913
-0.66935658 0.55962527 1.4350468
-0.6668669 0.55953813 1.4342024
-0.66437709 0.55945098 1.4333581
-0.66188741 0.55936384 1.4325136
-0.65939766 0.5592767 1.4316692
-0.65690792 0.55918956 1.4308249
-0.65441817 0.55910242 1.4299804
-0.65192842 0.55901527 1.429136
-0.64943868 0.55892813 1.4282917
-0.64694893 0.55884105 1.4274472
-0.64445925 0.55875391 1.4266028
-0.6419695 0.55866677 1.4257585
-0.63947976 0.55857962 1.424914
-0.63699001 0.55849248 1.4240696
-0.63450027 0.55840534 1.4232253
-0.62104666 0.56520236 1.4362233
-0.61852622 0.56511414 1.4353684
-0.61475086 0.56754714 1.4402859
-0.61221963 0.56745851 1.4394274
-0.6096884 0.56736994 1.4385689
-0.60715723 0.56728137 1.4377105
-0.604626 0.56719273 1.436852
-0.60209483 0.56710416 1.4359936
-0.54984915 0.55544257 1.3945156
-0.49831542 0.56347191 1.4007965
-0.42161778 0.56805539 1.3923452
-0.41698962 0.57045847 1.3969734
-0.41649407 0.5678761 1.3906075
-0.4139322 0.5677864 1.3897387
-0.41137037 0.56769675 1.3888698
-0.41091812 0.56511587 1.3825184
-0.40836704 0.56502658 1.3816532
-0.40368479 0.56742775 1.3862631
-0.40112293 0.56733811 1.3853943
-0.39856106 0.56724846 1.3845255
-0.91563463 0.55712968 1.4853654
-0.91318142 0.5544672 1.4783361
-0.90833855 0.55687433 1.482891
-0.9059065 0.55678916 1.482066
-0.89381152 0.55378926 1.4717667
-0.89131415 0.55627847 1.4771171
-0.88896906 0.5536198 1.4701244
-0.88654786 0.55353504 1.4693033
-0.88401806 0.55602312 1.4746425
-0.87904549 0.55799615 1.4781203
-0.8764869 0.56005371 1.482417
-0.87403679 0.55996794 1.4815861
-0.87158668 0.55988216 1.4807551
-0.86913663 0.55979645 1.4799242
-0.85483348 0.55500168 1.4647446
-0.85240138 0.5549165 1.4639198
-0.84975266 0.55697089 1.4681857
-0.84731162 0.55688548 1.4673578
-0.84487057 0.55680001 1.4665298
-0.84242952 0.55671459 1.4657021
-0.83998847 0.55662918 1.4648741
-0.83510631 0.55645829 1.4632183
-0.82808089 0.55406535 1.4556713
-0.8256489 0.55398017 1.4548465
-0.8232168 0.55389506 1.4540217
-0.82078481 0.55380994 1.4531969
-0.81801891 0.55586022 1.4574231
-0.75330114 0.55831873 1.4468355
-0.75084031 0.55823261 1.4460009
-0.74908292 0.55559456 1.4392077
-0.74663281 0.55550885 1.4383768
-0.74418277 0.55542308 1.4375458
-0.74173266 0.55533731 1.4367149
-0.73928261 0.5552516 1.4358839
-0.7368325 0.55516583 1.435053
-0.73361397 0.5576297 1.4401586
-0.73115313 0.55754358 1.439324
-0.72869223 0.55745745 1.4384893
-0.72623134 0.55737132 1.4376547
-0.72309405 0.55940861 1.4417552
-0.72062415 0.55932218 1.4409175
-0.71815419 0.55923575 1.4400798
-0.71568429 0.55914927 1.4392421
-0.7132144 0.55906284 1.4384044
-0.7107445 0.55897641 1.4375668
-0.7082746 0.55888993 1.4367291
-0.70580465 0.5588035 1.4358914
-0.70333475 0.55871707 1.4350537
-0.70086485 0.55863059 1.434216
-0.69839495 0.55854416 1.4333783
-0.695925 0.55845773 1.4325407
-0.6934551 0.55837125 1.4317031
-0.6909852 0.55828482 1.4308654
-0.68755221 0.56074119 1.4358982
-0.68425989 0.56277305 1.4399461
-0.68177015 0.56268591 1.4391016
-0.6792804 0.56259876 1.4382572
-0.67430091 0.56242448 1.4365684
-0.66932142 0.5622502 1.4348797
-0.66770637 0.56004661 1.4291675
-0.66522568 0.55995977 1.4283261
-0.66274494 0.55987298 1.4274848
-0.65936249 0.56190163 1.431502
-0.65687275 0.56181449 1.4306576
-0.654383 0.56172734 1.4298133
-0.65282202 0.55952567 1.4241195
-0.65034133 0.55943882 1.4232781
-0.64786059 0.55935204 1.4224367
-0.6453799 0.5592652 1.4215953
-0.64289916 0.55917835 1.4207541
-0.64041841 0.55909157 1.4199127
-0.63793766 0.55900472 1.4190713
-0.63545698 0.55891788 1.4182301
-0.63197535 0.56094313 1.4222137
-0.62948561 0.56085598 1.4213692
-0.62699586 0.56076884 1.4205248
-0.61471593 0.56506276 1.4277216
-0.61092949 0.56750679 1.4326348
-0.60840911 0.56741858 1.43178
-0.60588872 0.56733036 1.4309253
-0.60336834 0.56724215 1.4300704
-0.50255281 0.56371361 1.3958786
-0.50003242 0.5636254 1.3950238
-0.49751204 0.56353718 1.394169
-0.4215816 0.57075638 1.3921732
-0.41901973 0.57066673 1.3913043
-0.41645789 0.57057709 1.3904355
-0.41389602 0.57048738 1.3895665
-0.4134331 0.56789458 1.3832122
-0.41088209 0.56780535 1.3823471
-0.40833104 0.56771606 1.3814819
-0.40578002 0.56762677 1.3806167
-0.40322894 0.56753749 1.3797514
-0.39852488 0.56994945 1.3843534
-0.88651365 0.55608779 1.4691406
-0.88409245 0.55600303 1.4683194
-0.87412882 0.56039882 1.4763006
-0.87168777 0.5603134 1.4754728
-0.86924672 0.56022799 1.4746449
-0.85503769 0.55498612 1.4584655
-0.85261643 0.55490136 1.4576443
-0.84750301 0.55731034 1.4621067
-0.82356167 0.55388445 1.4477904
-0.82114041 0.55379975 1.4469692
-0.75884861 0.55852067 1.442367
-0.75639856 0.5584349 1.4415359
-0.75394845 0.55834919 1.4407051
-0.75207573 0.55612701 1.4349061
-0.74963462 0.5560416 1.4340782
-0.73987043 0.55569983 1.4307666
-0.73742938 0.55561441 1.4299387
-0.73434782 0.55766314 1.4340575
-0.73189777 0.55757743 1.4332265
-0.72944772 0.55749166 1.4323956
-0.72699761 0.55740589 1.4315646
-0.72454751 0.55732018 1.4307337
-0.72209746 0.55723441 1.4299027
-0.7188139 0.5597074 1.4349856
-0.716353 0.55962127 1.4341509
-0.7138921 0.55953515 1.4333163
-0.71143126 0.55944902 1.4324818
-0.70897031 0.55936289 1.4316472
-0.70650947 0.55927676 1.4308125
-0.70404857 0.55919063 1.4299779
-0.70158768 0.5591045 1.4291433
-0.69912678 0.55901837 1.4283087
-0.69666588 0.55893224 1.427474
-0.69420499 0.55884612 1.4266394
-0.69174409 0.55875999 1.4258049
-0.68928319 0.55867386 1.4249701
-0.68601054 0.56071597 1.4290241
-0.68354064 0.56062949 1.4281864
-0.68107069 0.56054306 1.4273487
-0.6775943 0.56300932 1.4323663
-0.67511356 0.56292248 1.4315249
-0.67263281 0.56283563 1.4306836
-0.67015207 0.56274885 1.4298422
-0.6687212 0.56011081 1.4231604
-0.6662513 0.56002438 1.4223228
-0.66378134 0.55993795 1.4214851
-0.66022921 0.56240153 1.4264768
-0.65774846 0.56231469 1.4256355
-0.65637165 0.55967861 1.418972
-0.65483069 0.557468 1.4132856
-0.6523698 0.55738187 1.4124509
-0.6489619 0.55941927 1.416459
-0.646492 0.55933279 1.4156213
-0.64402211 0.55924636 1.4147837
-0.64155221 0.55915993 1.413946
-0.63908231 0.55907345 1.4131083
-0.63661242 0.55898702 1.4122707
-0.63294125 0.56144649 1.417222
-0.6304605 0.56135964 1.4163808
-0.62447095 0.56330663 1.4195132
-0.61573559 0.56558889 1.4227473
-0.61217088 0.56762069 1.426702
-0.60966128 0.5675329 1.4258509
-0.60715175 0.56744504 1.4249997
-0.53235066 0.56008244 1.3882704
-0.52821612 0.56252569 1.3930649
-0.52571559 0.56243819 1.3922167
-0.52321506 0.56235069 1.3913686
-0.50503761 0.566459 1.3965641
-0.50251722 0.56637079 1.3957094
-0.49999684 0.56628257 1.3948545
-0.42277238 0.56875569 1.3810569
-0.41849917 0.57076269 1.3847713
-0.41594812 0.57067341 1.3839061
-0.41514629 0.56848878 1.3784704
-0.41260427 0.56839979 1.3776083
-0.41006225 0.5683108 1.3767462
-0.40752023 0.56822187 1.3758841
-0.40319294 0.57022703 1.3795801
-0.40064192 0.57013774 1.3787149
-0.87422121 0.5608108 1.4710165
-0.8717891 0.56072569 1.4701917
-0.86935711 0.56064057 1.4693669
-0.75991488 0.55681008 1.4322493
-0.75748289 0.55672497 1.4314245
-0.75448227 0.55878609 1.43557
-0.73495382 0.55810255 1.4289469
-0.73251277 0.55801713 1.4281189
-0.72941309 0.56007475 1.4322311
-0.72696304 0.55998898 1.4314001
-0.72451293 0.55990326 1.4305692
-0.72206283 0.55981749 1.4297382
-0.71961278 0.55973172 1.4289073
-0.71716273 0.55964601 1.4280763
-0.71471262 0.55956024 1.4272454
-0.71226257 0.55947447 1.4264144
-0.70981246 0.55938876 1.4255835
-0.70736241 0.55930299 1.4247525
-0.7049123 0.55921721 1.4239216
-0.7024622 0.5591315 1.4230906
-0.70001215 0.55904573 1.4222596
-0.6975621 0.55895996 1.4214287
-0.69511199 0.55887425 1.4205977
-0.69266194 0.55878848 1.4197668
-0.69021189 0.55870271 1.4189358
-0.68678755 0.56118226 1.4239703
-0.68432665 0.56109613 1.4231356
-0.68186575 0.56101 1.4223011
-0.67940485 0.56092387 1.4214665
-0.67694396 0.56083775 1.4206319
-0.67362612 0.56288779 1.4246699
-0.67115617 0.56280136 1.4238322
-0.66956127 0.56057936 1.418128
-0.66710037 0.56049323 1.4172933
-0.66463953 0.5604071 1.4164587
-0.66127658 0.56245553 1.4204814
-0.65880668 0.56236911 1.4196439
-0.65725684 0.56014872 1.4139549
-0.65479594 0.56006259 1.4131203
-0.65233505 0.55997646 1.4122857
-0.64892703 0.56202334 1.4162931
-0.64741325 0.5598042 1.4106164
-0.64495236 0.55971807 1.4097818
-0.64249146 0.55963194 1.4089472
-0.64003056 0.55954581 1.4081125
-0.63756967 0.55945969 1.4072779
-0.6329062 0.56406194 1.4170555
-0.63042545 0.5639751 1.4162141
-0.62794471 0.56388825 1.4153727
-0.62546402 0.56380147 1.4145315
-0.62298328 0.56371462 1.4136901
-0.61945635 0.56575727 1.4176571
-0.61696661 0.56567013 1.4168128
-0.61198711 0.56549585 1.4151239
-0.60949737 0.56540871 1.4142796
-0.53615791 0.56067574 1.3842431
-0.53367722 0.56058896 1.3834018
-0.53119648 0.56050211 1.3825604
-0.52871573 0.56041527 1.381719
-0.5237543 0.56024164 1.3800364
-0.52127361 0.5601548 1.379195
-0.51879287 0.56006801 1.3783537
-0.51067692 0.56454945 1.3869604
-0.50817633 0.56446195 1.3861123
-0.50567579 0.56437445 1.3852643
-0.50317526 0.56428689 1.3844162
-0.50067472 0.56419939 1.383568
-0.42733446 0.56899726 1.3762496
-0.42480326 0.56890869 1.3753911
-0.42227206 0.56882012 1.3745327
-0.41974086 0.56873149 1.3736742
-0.41720963 0.56864291 1.3728157
-0.41467842 0.56855434 1.3719573
-0.41214722 0.56846571 1.3710988
-0.40748435 0.57090193 1.3757133
-0.40494233 0.57081294 1.3748512
-0.40240031 0.57072395 1.3739891
-0.72759616 0.56041992 1.4262992
-0.72515512 0.56033444 1.4254714
-0.72271407 0.56024903 1.4246435
-0.72027302 0.56016362 1.4238156
-0.71783191 0.56007814 1.4229877
-0.71539086 0.55999273 1.4221598
-0.71294981 0.55990732 1.4213319
-0.70977789 0.56197184 1.4254189
-0.70732784 0.56188607 1.424588
-0.6934213 0.55922377 1.4147087
-0.69098026 0.55913836 1.4138809
-0.68853915 0.55905294 1.413053
-0.6852771 0.56111431 1.4171094
-0.68282706 0.5610286 1.4162785
-0.68037695 0.56094283 1.4154475
-0.6779269 0.56085706 1.4146166
-0.67444831 0.56334609 1.419632
-0.67198741 0.56325996 1.4187974
-0.66214383 0.56291544 1.4154589
-0.65968299 0.56282932 1.4146242
-0.65722203 0.56274319 1.4137896
-0.63999581 0.56214029 1.4079473
-0.63753492 0.56205416 1.4071127
-0.63407266 0.56410861 1.4111012
-0.63160282 0.56402212 1.4102635
-0.62913287 0.5639357 1.4094259
-0.62666297 0.56384927 1.4085882
-0.62419307 0.56376278 1.4077505
-0.62172318 0.56367636 1.4069128
-0.61925328 0.56358993 1.4060751
-0.61550605 0.56606954 1.4109994
-0.61431342 0.56341702 1.4043998
-0.53612292 0.56329113 1.3840765
-0.53364217 0.56320435 1.3832351
-0.53116143 0.5631175 1.3823938
-0.52868068 0.56303066 1.3815525
-0.5262 0.56294388 1.3807111
-0.52371925 0.56285703 1.3798697
-0.51627707 0.56259656 1.3773457
-0.51379633 0.56250972 1.3765044
-0.51131564 0.56242287 1.375663
-0.5088349 0.56233609 1.3748217
-0.50635421 0.56224924 1.3739804
-0.50387347 0.5621624 1.373139
-0.50139272 0.56207561 1.3722976
-0.49891201 0.56198877 1.3714563
-0.49643129 0.56190193 1.370615
-0.49395058 0.56181514 1.3697736
-0.43691596 0.56939179 1.3731462
-0.4339205 0.56667614 1.365935
-0.43141091 0.56658828 1.3650838
-0.42890134 0.56650048 1.3642327
-0.42639178 0.56641263 1.3633815
-0.42388222 0.56632477 1.3625305
-0.41927326 0.56877428 1.3671626
-0.41675287 0.56868607 1.3663077
-0.41423249 0.56859791 1.365453
-0.40958029 0.57104576 1.3700703
-0.40490639 0.573493 1.3746805
-0.40236437 0.57340401 1.3738184
-0.72267962 0.56282264 1.4244795
-0.72023851 0.56273723 1.4236517
-0.71779746 0.56265175 1.4228238
-0.71535635 0.56256634 1.4219959
-0.7129153 0.56248093 1.421168
-0.63503927 0.5645625 1.4061128
-0.63257837 0.56447637 1.4052782
-0.63011754 0.56439024 1.4044435
-0.62765658 0.56430405 1.4036089
-0.62519568 0.56421793 1.4027743
-0.62273484 0.5641318 1.4019397
-0.61921835 0.566194 1.4059093
-0.61781299 0.56395954 1.4002705
-0.49819291 0.56195813 1.3648632
-0.44141376 0.5695855 1.3683197
-0.4389042 0.56949764 1.3674686
-0.43639463 0.56940985 1.3666174
-0.43388507 0.56932199 1.3657664
-0.43137547 0.56923413 1.3649153
-0.42886591 0.56914634 1.3640641
-0.42808795 0.56693399 1.3586382
-0.42558739 0.56684643 1.3577901
-0.42308682 0.56675893 1.3569421
-0.41882762 0.56879497 1.3606596
-0.41631806 0.56870717 1.3598084
-0.4116765 0.57116687 1.3644289
-0.40701336 0.5736258 1.3690419
-0.40232849 0.57608408 1.3736476
-0.69171453 0.56211901 1.408664
-0.63500452 0.56715703 1.4059474
-0.62885618 0.56430829 1.3976685
-0.62516093 0.56681246 1.402609
-0.6227001 0.56672633 1.4017744
-0.6202392 0.5666402 1.4009398
-0.50949895 0.56276435 1.363382
-0.50703812 0.56267822 1.3625474
-0.44805709 0.57027036 1.3652549
-0.44388789 0.57231909 1.3690023
-0.44137833 0.57223129 1.3681512
-0.4355543 0.5698328 1.3610145
-0.43305373 0.56974524 1.3601664
-0.42305151 0.56939518 1.3567741
-0.42055094 0.56930768 1.355926
-0.41805041 0.56922013 1.355078
-0.41377306 0.5712651 1.3587888
-0.41126347 0.57117724 1.3579377
-0.71356863 0.56544918 1.4159241
-0.71113658 0.56536406 1.4150993
-0.70870453 0.56527895 1.4142745
-0.70627248 0.56519383 1.4134496
-0.45250317 0.5704186 1.3604136
-0.45001343 0.57033145 1.3595691
-0.44552121 0.57281917 1.3642389
-0.44302064 0.57273167 1.3633908
-0.44254422 0.57007003 1.3570359
-0.44005448 0.56998289 1.3561915
-0.42051566 0.571944 1.3557582
-0.41801509 0.57185644 1.35491
-0.41764683 0.56919867 1.3485919
-0.41515708 0.56911153 1.3477474
-0.71440113 0.56538725 1.4098622
-0.71197993 0.56530249 1.409041
-0.70955867 0.56521773 1.4082198
-0.70713741 0.56513298 1.4073987
-0.45659956 0.57097441 1.356487
-0.45411885 0.57088757 1.3556457
-0.4516381 0.57080072 1.3548044
-0.44748855 0.57286918 1.3585575
-0.4449988 0.57278204 1.3577131
-0.42259115 0.57199776 1.3501135
-0.4201014 0.57191062 1.349269
-0.71194571 0.56785518 1.4088784
-0.70952445 0.56777042 1.4080572
-0.70710325 0.56768566 1.4072361
-0.70468199 0.56760097 1.4064149
-0.70226079 0.56751621 1.4055938
-0.70061612 0.5652355 1.399876
-0.69820392 0.56515104 1.399058
-0.69579166 0.56506664 1.3982399
-0.54299968 0.56905621 1.3680916
-0.54054964 0.56897044 1.3672607
-0.53809953 0.56888473 1.3664297
-0.45606494 0.57090461 1.3499593
-0.45160308 0.57341623 1.3546377
-0.44912237 0.57332945 1.3537964
-0.71264315 0.56820077 1.4038045
-0.71023095 0.56811631 1.4029864
-0.70781869 0.56803191 1.4021684
-0.70540649 0.56794751 1.4013503
-0.70299429 0.56786305 1.4005321
-0.70058203 0.56777865 1.399714
-0.69816983 0.56769419 1.398896
-0.69575763 0.56760979 1.3980778
-0.54430968 0.56945378 1.3632237
-0.54186857 0.56936836 1.3623959
-0.53942752 0.56928289 1.361568
-0.46946278 0.56906682 1.3429986
-0.71260905 0.57074398 1.4036425
-0.71093762 0.56844324 1.397917
-0.70853448 0.56835914 1.397102
-0.70689005 0.56605935 1.3913854
-0.70132482 0.56810677 1.3946568
-0.69813573 0.5702374 1.3987339
-0.69572353 0.570153 1.3979158
-0.69331133 0.57006854 1.3970977
-0.54183412 0.57194197 1.3622319
-0.53939307 0.5718565 1.3614039
-0.53695202 0.57177109 1.3605762
-0.71257502 0.57328719 1.4034805
-0.7109037 0.57097697 1.3977556
-0.7085005 0.57089287 1.3969406
-0.70685625 0.56858355 1.3912247
-0.70446205 0.5684998 1.3904127
-0.70129091 0.5706405 1.3944954
-0.69888771 0.5705564 1.3936803
-0.54801762 0.57248145 1.3590187
-0.54558563 0.57239634 1.3581939
-0.54315352 0.57231122 1.3573691
-0.54072154 0.57222611 1.3565441
-0.53828943 0.57214099 1.3557193
-0.54474401 0.57221872 1.3515675
-0.53582311 0.57461995 1.3547312
-0.73020095 0.53529239 1.483
-0.71330196 0.53745812 1.4890001
-0.73006004 0.53594005 1.4770001
-0.72939998 0.53619999 1.47
-0.73075718 0.52983332 1.4450001
-0.66254002 0.54156667 1.4770001
-0.65972674 0.54156667 1.4770001
-0.44772479 0.55506575 1.483
-0.42230192 0.55506575 1.483
-0.41947716 0.55506575 1.483
-0.45593145 0.55074286 1.4640001
-0.45314291 0.55074286 1.4640001
-0.44939998 0.55300003 1.47
-0.42903337 0.55563337 1.4770001
-0.42622003 0.55563337 1.4770001
-0.42340669 0.55563337 1.4770001
-0.42059338 0.55563337 1.4770001
-0.65934289 0.53311431 1.4100001
-0.65898573 0.53500473 1.4150001
-0.4615086 0.55353147 1.4640001
-0.45684001 0.55126292 1.4580001
-0.45406288 0.55126292 1.4580001
-0.45128572 0.55126292 1.4580001
-0.44850859 0.55126292 1.4580001
-0.4429543 0.55126292 1.4580001
-0.4328343 0.5489943 1.452
-0.77004671 0.53998005 1.4210001
-0.65653718 0.53352004 1.404
-0.46602285 0.55176002 1.452
-0.46325716 0.55176002 1.452
-0.46049145 0.55176002 1.452
-0.45961717 0.55404001 1.4580001
-0.46878856 0.55452573 1.452
-0.46602285 0.55452573 1.452
-0.46325716 0.55452573 1.452
-0.46049145 0.55452573 1.452
-0.4577257 0.55452573 1.452
-0.45495999 0.55452573 1.452
-0.4521943 0.55452573 1.452
-0.44942856 0.55452573 1.452
-0.46878856 0.55729145 1.452
-0.46602285 0.55729145 1.452
-0.46325716 0.55729145 1.452
-0.46049145 0.55729145 1.452
-0.4577257 0.55729145 1.452
-0.45495999 0.55729145 1.452
-0.4521943 0.55729145 1.452
-0.44726193 0.55460477 1.4450001
-0.44450954 0.55460477 1.4450001
-0.44175717 0.55460477 1.4450001
-0.43900478 0.55460477 1.4450001
-0.43625239 0.55460477 1.4450001
-0.43350002 0.55460477 1.4450001
0.31623527 0.57149237 1.4890001
0.31778574 0.56918949 1.483
0.32061049 0.56918949 1.483
0.33481905 0.57417905 1.4960001
0.33766857 0.57417905 1.4960001
0.34051809 0.57417905 1.4960001
0.34336764 0.57417905 1.4960001
-0.47155431 0.56005716 1.452
-0.46878856 0.56005716 1.452
-0.46602285 0.56005716 1.452
-0.46102381 0.55735719 1.4450001
-0.45827144 0.55735719 1.4450001
-0.45551905 0.55735719 1.4450001
-0.45276669 0.55735719 1.4450001
-0.45001429 0.55735719 1.4450001
-0.44726193 0.55735719 1.4450001
-0.44450954 0.55735719 1.4450001
-0.44175717 0.55735719 1.4450001
-0.43900478 0.55735719 1.4450001
-0.43625239 0.55735719 1.4450001
-0.43350002 0.55735719 1.4450001
-0.43074763 0.55735719 1.4450001
-0.42799526 0.55735719 1.4450001
0.31496096 0.57201427 1.483
0.31778574 0.57201427 1.483
0.32061049 0.57201427 1.483
0.32343522 0.57201427 1.483
0.33900669 0.56970006 1.4770001
0.34020001 0.56700003 1.47
0.34299999 0.56700003 1.47
0.34744668 0.56970006 1.4770001
-0.66683429 0.53956574 1.3920001
-0.46928096 0.56010956 1.4450001
-0.46459144 0.55778384 1.439
-0.46185046 0.55778384 1.439
-0.46102381 0.56010956 1.4450001
-0.45636857 0.55778384 1.439
-0.45362762 0.55778384 1.439
-0.45088667 0.55778384 1.439
-0.44814572 0.55778384 1.439
-0.44540477 0.55778384 1.439
-0.44266379 0.55778384 1.439
-0.43992287 0.55778384 1.439
-0.43718192 0.55778384 1.439
-0.43444094 0.55778384 1.439
-0.43169999 0.55778384 1.439
-0.42895904 0.55778384 1.439
-0.42621809 0.55778384 1.439
-0.42524287 0.56010956 1.4450001
-0.42249048 0.56010956 1.4450001
0.31496096 0.57483906 1.483
0.31778574 0.57483906 1.483
0.32061049 0.57483906 1.483
0.32343522 0.57483906 1.483
0.329 0.56980002 1.47
0.3346 0.56980002 1.47
0.33740002 0.56980002 1.47
0.33881143 0.56747431 1.4640001
0.34160003 0.56747431 1.4640001
0.3443886 0.56747431 1.4640001
-0.66683429 0.54221714 1.3920001
-0.45719525 0.55818766 1.4330001
-0.45446575 0.55818766 1.4330001
-0.45173621 0.55818766 1.4330001
-0.44900671 0.55818766 1.4330001
-0.44627717 0.55818766 1.4330001
-0.44354764 0.55818766 1.4330001
-0.44081813 0.55818766 1.4330001
-0.4380886 0.55818766 1.4330001
-0.43535906 0.55818766 1.4330001
-0.43262953 0.55818766 1.4330001
-0.43169999 0.56052476 1.439
-0.42717049 0.55818766 1.4330001
-0.42347714 0.56052476 1.439
-0.42073619 0.56052476 1.439
0.30939999 0.57260001 1.47
0.31219998 0.57260001 1.47
0.315 0.57260001 1.47
0.31931335 0.57532668 1.4770001
0.3263143 0.56792575 1.4580001
0.32909143 0.56792575 1.4580001
0.33186856 0.56792575 1.4580001
0.33464572 0.56792575 1.4580001
0.33742285 0.56792575 1.4580001
0.34020001 0.56792575 1.4580001
-0.46597144 0.55191427 1.4100001
-0.45791429 0.55191427 1.4100001
-0.4416905 0.5585686 1.427
-0.43897238 0.5585686 1.427
-0.43625429 0.5585686 1.427
-0.4335362 0.5585686 1.427
-0.42990002 0.56091714 1.4330001
-0.42717049 0.56091714 1.4330001
-0.42171144 0.56091714 1.4330001
0.30409715 0.57070291 1.4580001
0.30687431 0.57070291 1.4580001
0.30965143 0.57070291 1.4580001
0.31242859 0.57070291 1.4580001
0.31520572 0.57070291 1.4580001
0.32220572 0.56835431 1.452
0.32497144 0.56835431 1.452
0.32773712 0.56835431 1.452
0.33050287 0.56835431 1.452
0.33464572 0.57070291 1.4580001
0.33603427 0.56835431 1.452
-0.69313049 0.54319334 1.381
-0.46666285 0.55224001 1.404
-0.45061713 0.55224001 1.404
0.32065237 0.56836671 1.4450001
0.32497144 0.57112002 1.452
0.32615715 0.56836671 1.4450001
0.32890952 0.56836671 1.4450001
0.33326858 0.57112002 1.452
0.33603427 0.57112002 1.452
-0.46733144 0.55254287 1.3980001
-0.4646686 0.55254287 1.3980001
-0.46200576 0.55254287 1.3980001
0.32065237 0.57111907 1.4450001
0.32340476 0.57111907 1.4450001
0.32890952 0.57111907 1.4450001
-0.46999434 0.55520576 1.3980001
-0.46733144 0.55520576 1.3980001
-0.4646686 0.55520576 1.3980001
-0.45044479 0.55083716 1.3870001
-0.44676575 0.55282289 1.3920001
0.3344143 0.57387143 1.4450001
0.3371667 0.57387143 1.4450001
0.33991906 0.57387143 1.4450001
-0.48214763 0.55347908 1.3870001
-0.47062859 0.55547434 1.3920001
-0.46797717 0.55547434 1.3920001
-0.46532574 0.55547434 1.3920001
-0.4646686 0.5578686 1.3980001
-0.45737144 0.55547434 1.3920001
-0.45472002 0.55547434 1.3920001
-0.45044479 0.55347908 1.3870001
-0.44780287 0.55347908 1.3870001
0.33302572 0.57422948 1.439
0.33576664 0.57422948 1.439
0.33850762 0.57422948 1.439
-0.47950572 0.55612099 1.3870001
-0.47686383 0.55612099 1.3870001
-0.46893814 0.55612099 1.3870001
-0.4662962 0.55612099 1.3870001
-0.46365431 0.55612099 1.3870001
-0.46267429 0.55812573 1.3920001
-0.46002287 0.55812573 1.3920001
0.29298288 0.55812573 1.3920001
0.2956343 0.55812573 1.3920001
0.29828572 0.55812573 1.3920001
0.30093715 0.55812573 1.3920001
0.30358857 0.55812573 1.3920001
-0.55007142 0.54748291 1.3590001
-0.47570285 0.55695242 1.376
-0.42120001 0.5682857 1.404
-0.42387432 0.57095999 1.404
-0.42120001 0.57095999 1.404
0.33294857 0.57095999 1.404
0.33418861 0.57118291 1.3980001
