# .PCD v0.7 - Point Cloud Data file format
VERSION 0.7
FIELDS x y z rgba
SIZE 4 4 4 4
TYPE F F F U
COUNT 1 1 1 1
WIDTH 1136
HEIGHT 1
VIEWPOINT 0 0 0 1 0 0 0
POINTS 1136
DATA ascii
-0.27510852 0.19536692 1.516 4290772992
-0.27245048 0.19536692 1.516 4283844151
-0.26979241 0.19536692 1.516 4282655516
-0.26590088 0.19446483 1.5090001 4279500800
-0.2644763 0.19536692 1.516 4279173120
-0.26060933 0.19446483 1.5090001 4279763712
-0.25796354 0.19446483 1.5090001 4280158464
-0.25531778 0.19446483 1.5090001 4280355841
-0.25166732 0.19369161 1.503 4280356864
-0.2500262 0.19446483 1.5090001 4280422656
-0.24738044 0.19446483 1.5090001 4280554240
-0.24473464 0.19446483 1.5090001 4280685569
-0.24112628 0.19369161 1.503 4280685071
-0.23944309 0.19446483 1.5090001 4280553486
-0.23585577 0.19369161 1.503 4280422150
-0.2332205 0.19369161 1.503 4280290563
-0.23058525 0.19369161 1.503 4280092165
-0.22794999 0.19369161 1.503 4280092165
-0.22531472 0.19369161 1.503 4280092672
-0.22267947 0.19369161 1.503 4280355841
-0.22004421 0.19369161 1.503 4280422656
-0.21740896 0.19369161 1.503 4280356864
-0.21563107 0.19446483 1.5090001 4280487680
-0.21298529 0.19446483 1.5090001 4280224512
-0.2103395 0.19446483 1.5090001 4280158464
-0.20769373 0.19446483 1.5090001 4280158464
-0.20504795 0.19446483 1.5090001 4280158464
-0.20240217 0.19446483 1.5090001 4280158464
-0.19975638 0.19446483 1.5090001 4280158464
-0.19632687 0.19369161 1.503 4280158464
-0.19446483 0.19446483 1.5090001 4280158464
-0.19181904 0.19446483 1.5090001 4280158464
-0.18917327 0.19446483 1.5090001 4280092672
-0.18652749 0.19446483 1.5090001 4279895296
-0.18388171 0.19446483 1.5090001 4279502081
-0.18123592 0.19446483 1.5090001 4279502081
-0.17788005 0.19369161 1.503 4279633920
-0.17524479 0.19369161 1.503 4279304960
-0.17180562 0.19278952 1.4960001 4279304960
-0.168391 0.19188742 1.4890001 4279107584
-0.16232885 0.18789245 1.4580001 4279107584
-0.15769042 0.18544392 1.439 4278910976
-0.15387341 0.1838975 1.427 4278779904
-0.15009849 0.18235105 1.4150001 4278779904
-0.14761752 0.18235105 1.4150001 4278517760
-0.1446237 0.1817067 1.4100001 4278190080
-0.14154659 0.18093348 1.404 4278714371
-0.13908492 0.18093348 1.404 4282133047
-0.13545552 0.17938703 1.3920001 4282329600
-0.13301487 0.17938703 1.3920001 4280881920
-0.13010523 0.17874269 1.3870001 4280355089
-0.12767334 0.17874269 1.3870001 4280486675
-0.12524147 0.17874269 1.3870001 4280487173
-0.1228096 0.17874269 1.3870001 4280487173
-0.11985699 0.17796947 1.381 4280356107
-0.11743563 0.17796947 1.381 4280224520
-0.11501428 0.17796947 1.381 4280158464
-0.11259293 0.17796947 1.381 4280092672
-0.10977269 0.17732511 1.376 4279699712
-0.10736011 0.17732511 1.376 4279699712
-0.10494752 0.17732511 1.376 4279633920
-0.10253493 0.17732511 1.376 4279502592
-0.10012235 0.17732511 1.376 4279370496
-0.09770976 0.17732511 1.376 4279173120
-0.095297173 0.17732511 1.376 4280687360
-0.092884585 0.17732511 1.376 4281937412
-0.090471998 0.17732511 1.376 4281609216
-0.08805941 0.17732511 1.376 4279635200
-0.085646823 0.17732511 1.376 4279633162
-0.083536692 0.17796947 1.381 4279764749
-0.081115335 0.17796947 1.381 4279241476
-0.078409068 0.17732511 1.376 4279109633
-0.076272629 0.17796947 1.381 4279633410
-0.07385128 0.17796947 1.381 4279699460
-0.071429923 0.17796947 1.381 4279633410
-0.068758719 0.17732511 1.376 4279502081
-0.066346131 0.17732511 1.376 4279633410
-0.063654765 0.17655189 1.3700001 4279502081
-0.061252698 0.17655189 1.3700001 4279633410
-0.058850631 0.17655189 1.3700001 4279765253
-0.056448568 0.17655189 1.3700001 4279698956
-0.0540465 0.17655189 1.3700001 4279698956
-0.051644433 0.17655189 1.3700001 4279633410
-0.049242366 0.17655189 1.3700001 4279699460
-0.046840299 0.17655189 1.3700001 4279698956
-0.044438232 0.17655189 1.3700001 4279698956
-0.042036165 0.17655189 1.3700001 4279501833
-0.039634101 0.17655189 1.3700001 4279698956
-0.037232034 0.17655189 1.3700001 4279698956
-0.034829967 0.17655189 1.3700001 4279764749
-0.0324279 0.17655189 1.3700001 4279504143
-0.030025832 0.17655189 1.3700001 4279438350
-0.027623767 0.17655189 1.3700001 4279373056
-0.0252217 0.17655189 1.3700001 4279504896
-0.022819633 0.17655189 1.3700001 4279636233
-0.020417567 0.17655189 1.3700001 4279636233
-0.0180155 0.17655189 1.3700001 4279635727
-0.01555645 0.17590755 1.365 4279504141
-0.01316315 0.17590755 1.365 4279438598
-0.01076985 0.17590755 1.365 4279636233
-0.0084072333 0.17655189 1.3700001 4279701523
-0.0060051666 0.17655189 1.3700001 4279701523
-0.0036031001 0.17655189 1.3700001 4279832852
-0.0012062934 0.17732511 1.376 4279701523
0.0012062934 0.17732511 1.376 4279701523
0.0036188799 0.17732511 1.376 4279832852
0.0060314666 0.17732511 1.376 4279701523
0.0084440531 0.17732511 1.376 4279832852
0.010896089 0.17796947 1.381 4279898395
0.013269227 0.17732511 1.376 4279898395
0.015681813 0.17732511 1.376 4280162074
0.0180944 0.17732511 1.376 4280162074
0.020506987 0.17732511 1.376 4280489242
0.022919573 0.17732511 1.376 4280489242
0.02533216 0.17732511 1.376 4280293153
0.027744746 0.17732511 1.376 4280358946
0.030157333 0.17732511 1.376 4280228380
0.032569919 0.17732511 1.376 4280623138
0.035109624 0.17796947 1.381 4281148441
0.037694037 0.17874269 1.3870001 4281214234
0.040270559 0.17938703 1.3920001 4281410857
0.042711198 0.17938703 1.3920001 4281542443
0.045346461 0.18016025 1.3980001 4281805615
0.048207901 0.1817067 1.4100001 4282134580
0.050680101 0.1817067 1.4100001 4282529086
0.053566962 0.18312427 1.4210001 4283055686
0.056295149 0.1838975 1.427 4282991951
0.058797155 0.1838975 1.427 4284242019
0.061556902 0.1846707 1.4330001 4284307032
0.064069428 0.1846707 1.4330001 4284241239
0.067139514 0.18621714 1.4450001 4284241769
0.069094487 0.1846707 1.4330001 4284504940
0.15259786 0.33480427 2.598 4286018400
0.15836282 0.33738166 2.618 4286083691
0.16170818 0.33480427 2.598 4290772992
0.16754328 0.33738166 2.618 4290772992
0.17351425 0.34008792 2.6390002 4290772992
0.17949136 0.34266531 2.6590002 4290772992
0.18706225 0.34807786 2.7010002 4290772992
0.19485144 0.35361928 2.7440002 4286478201
0.20293693 0.35941842 2.789 4290772992
0.20782699 0.35941842 2.789 4290772992
0.21271703 0.35941842 2.789 4290772992
0.21760708 0.35941842 2.789 4290772992
0.22433199 0.36238244 2.812 4290772992
0.22926235 0.36238244 2.812 4290772992
0.23419273 0.36238244 2.812 4290772992
0.23912311 0.36238244 2.812 4290772992
0.24405348 0.36238244 2.812 4290772992
0.24898385 0.36238244 2.812 4290772992
0.25391424 0.36238244 2.812 4290772992
0.26096174 0.36534646 2.835 4290772992
0.26377496 0.36238244 2.812 4290772992
0.26870534 0.36238244 2.812 4290772992
0.27363572 0.36238244 2.812 4290772992
0.27628765 0.35941842 2.789 4290772992
0.28117767 0.35941842 2.789 4290772992
0.28381118 0.3565833 2.7670002 4290772992
0.28866267 0.3565833 2.7670002 4290772992
0.29351413 0.3565833 2.7670002 4290772992
0.29836562 0.3565833 2.7670002 4290772992
0.30321708 0.3565833 2.7670002 4290772992
0.30806854 0.3565833 2.7670002 4290772992
0.31292003 0.3565833 2.7670002 4290772992
0.31777149 0.3565833 2.7670002 4290772992
0.32262298 0.3565833 2.7670002 4290772992
0.32747445 0.3565833 2.7670002 4290772992
0.32956356 0.35361928 2.7440002 4290772992
0.3343747 0.35361928 2.7440002 4290772992
-0.29087186 0.19972308 1.529 4286543994
-0.28706011 0.19893934 1.5230001 4286543994
-0.28438979 0.19893934 1.5230001 4290772992
-0.28171948 0.19893934 1.5230001 4290772992
-0.27776659 0.19802497 1.516 4290772992
-0.27510852 0.19802497 1.516 4286542448
-0.27245048 0.19802497 1.516 4281015836
-0.26979241 0.19802497 1.516 4281993472
-0.26590088 0.19711061 1.5090001 4280352768
-0.26325512 0.19711061 1.5090001 4279566336
-0.26060933 0.19711061 1.5090001 4280486659
-0.25796354 0.19711061 1.5090001 4280487680
-0.25531778 0.19711061 1.5090001 4280356352
-0.25267199 0.19711061 1.5090001 4280487173
-0.2500262 0.19711061 1.5090001 4280684808
-0.24738044 0.19711061 1.5090001 4280554240
-0.24473464 0.19711061 1.5090001 4280685569
-0.24208887 0.19711061 1.5090001 4280751114
-0.23944309 0.19711061 1.5090001 4280553992
-0.2367973 0.19711061 1.5090001 4280487680
-0.23415153 0.19711061 1.5090001 4280027136
-0.23150575 0.19711061 1.5090001 4280092672
-0.22885998 0.19711061 1.5090001 4280092672
-0.22621419 0.19711061 1.5090001 4280092928
-0.22267947 0.19632687 1.503 4280356352
-0.22092263 0.19711061 1.5090001 4280356352
-0.21827684 0.19711061 1.5090001 4280356352
-0.21663134 0.19802497 1.516 4280290304
-0.21298529 0.19711061 1.5090001 4280158720
-0.2103395 0.19711061 1.5090001 4280681216
-0.20769373 0.19711061 1.5090001 4280812544
-0.20504795 0.19711061 1.5090001 4280680709
-0.20240217 0.19711061 1.5090001 4280812294
-0.19975638 0.19711061 1.5090001 4280158464
-0.19711061 0.19711061 1.5090001 4280158464
-0.19446483 0.19711061 1.5090001 4280092160
-0.19181904 0.19711061 1.5090001 4280157952
-0.18917327 0.19711061 1.5090001 4280092160
-0.18652749 0.19711061 1.5090001 4280026368
-0.18388171 0.19711061 1.5090001 4279502081
-0.18123592 0.19711061 1.5090001 4279370496
-0.17788005 0.19632687 1.503 4279370752
-0.17442861 0.1954125 1.4960001 4279239168
-0.17180562 0.1954125 1.4960001 4279173376
-0.16771246 0.1937144 1.483 4278910976
-0.16232885 0.19044882 1.4580001 4278910976
-0.15769042 0.18796697 1.439 4278910976
-0.15387341 0.18639949 1.427 4278910976
-0.15073495 0.18561575 1.4210001 4278910976
-0.14761752 0.18483202 1.4150001 4278452224
-0.1446237 0.1841789 1.4100001 4278190080
-0.1421515 0.1841789 1.4100001 4278648833
-0.13908492 0.18339516 1.404 4282527805
-0.13603938 0.18261142 1.3980001 4283250978
-0.13301487 0.18182768 1.3920001 4281935375
-0.13057424 0.18182768 1.3920001 4280093961
-0.12767334 0.18117456 1.3870001 4279831046
-0.12524147 0.18117456 1.3870001 4280290048
-0.12227834 0.18039082 1.381 4280355841
-0.11985699 0.18039082 1.381 4280289800
-0.11743563 0.18039082 1.381 4280157958
-0.11501428 0.18039082 1.381 4280158464
-0.11259293 0.18039082 1.381 4280026880
-0.10977269 0.1797377 1.376 4279765253
-0.10689197 0.17895396 1.3700001 4279699460
-0.10494752 0.1797377 1.376 4279699712
-0.10253493 0.1797377 1.376 4279699712
-0.10012235 0.1797377 1.376 4279633410
-0.09770976 0.1797377 1.376 4279370496
-0.094881631 0.17895396 1.3700001 4279828736
-0.092479564 0.17895396 1.3700001 4280091904
-0.090077497 0.17895396 1.3700001 4279305216
-0.08805941 0.1797377 1.376 4279502848
-0.085273363 0.17895396 1.3700001 4279175178
-0.083234243 0.1797377 1.376 4279109385
-0.080821656 0.1797377 1.376 4279241476
-0.078409068 0.1797377 1.376 4279109633
-0.075996481 0.1797377 1.376 4279502081
-0.073583893 0.1797377 1.376 4279502081
-0.071171306 0.1797377 1.376 4279370752
-0.068758719 0.1797377 1.376 4279633920
-0.066346131 0.1797377 1.376 4279241476
-0.063654765 0.17895396 1.3700001 4279175682
-0.061252698 0.17895396 1.3700001 4279241476
-0.058850631 0.17895396 1.3700001 4279372805
-0.056448568 0.17895396 1.3700001 4279372301
-0.0540465 0.17895396 1.3700001 4279372301
-0.051455949 0.17830084 1.365 4279241476
-0.049062651 0.17830084 1.365 4279241476
-0.046669349 0.17830084 1.365 4279372805
-0.044276051 0.17830084 1.365 4279372805
-0.04188275 0.17830084 1.365 4279372301
-0.039489448 0.17830084 1.365 4279438350
-0.03709615 0.17830084 1.365 4279438350
-0.034829967 0.17895396 1.3700001 4279635729
-0.0324279 0.17895396 1.3700001 4279176975
-0.030025832 0.17895396 1.3700001 4279045389
-0.027623767 0.17895396 1.3700001 4279438598
-0.0252217 0.17895396 1.3700001 4279438598
-0.022819633 0.17895396 1.3700001 4279372301
-0.020417567 0.17895396 1.3700001 4279438350
-0.017949751 0.17830084 1.365 4279701523
-0.01555645 0.17830084 1.365 4279832852
-0.01316315 0.17830084 1.365 4279832852
-0.01076985 0.17830084 1.365 4279832852
-0.0084072333 0.17895396 1.3700001 4279832852
-0.0060051666 0.17895396 1.3700001 4279701523
-0.0036031001 0.17895396 1.3700001 4279898899
-0.0012010334 0.17895396 1.3700001 4279701777
0.0012010334 0.17895396 1.3700001 4279833356
0.0036031001 0.17895396 1.3700001 4279702027
0.0060314666 0.1797377 1.376 4279832852
0.0084440531 0.1797377 1.376 4279701523
0.01085664 0.1797377 1.376 4279898899
0.013269227 0.1797377 1.376 4279964692
0.015681813 0.1797377 1.376 4280357399
0.0180944 0.1797377 1.376 4280489242
0.020581502 0.18039082 1.381 4280423448
0.023002857 0.18039082 1.381 4280489242
0.02542421 0.18039082 1.381 4280293403
0.027845563 0.18039082 1.381 4280425245
0.030266916 0.18039082 1.381 4280294677
0.032688271 0.18039082 1.381 4280755228
0.035262164 0.18117456 1.3870001 4280821023
0.037829921 0.18182768 1.3920001 4281149732
0.040270559 0.18182768 1.3920001 4281083939
0.042895298 0.18261142 1.3980001 4281215781
0.045541078 0.18339516 1.404 4281805615
0.048207901 0.1841789 1.4100001 4282265910
0.050859816 0.18483202 1.4150001 4282333503
0.053566962 0.18561575 1.4210001 4282530883
0.05653185 0.18718323 1.4330001 4282925391
0.058797155 0.18639949 1.427 4284241251
0.061556902 0.18718323 1.4330001 4284241239
0.064069428 0.18718323 1.4330001 4284043604
0.067139514 0.18875071 1.4450001 4284240485
0.069094487 0.18718323 1.4330001 4284503657
0.15259786 0.33935943 2.598 4286150503
0.15836282 0.34197187 2.618 4286149738
0.16295305 0.34197187 2.618 4290772992
0.1688872 0.34471497 2.6390002 4290772992
0.17482924 0.34732744 2.6590002 4290772992
0.1823265 0.35281363 2.7010002 4290772992
0.18858591 0.35568732 2.723 4290772992
0.19648467 0.36143476 2.7670002 4290772992
0.20293693 0.36430848 2.789 4290772992
0.20782699 0.36430848 2.789 4290772992
0.21271703 0.36430848 2.789 4290772992
0.21760708 0.36430848 2.789 4290772992
0.22433199 0.36731282 2.812 4290772992
0.22738717 0.36430848 2.789 4290772992
0.23227721 0.36430848 2.789 4290772992
0.23912311 0.36731282 2.812 4290772992
0.24205731 0.36430848 2.789 4290772992
0.24898385 0.36731282 2.812 4290772992
0.25391424 0.36731282 2.812 4290772992
0.25884458 0.36731282 2.812 4290772992
0.26377496 0.36731282 2.812 4290772992
0.26870534 0.36731282 2.812 4290772992
0.27363572 0.36731282 2.812 4290772992
0.27628765 0.36430848 2.789 4290772992
0.28117767 0.36430848 2.789 4290772992
0.28381118 0.36143476 2.7670002 4290772992
0.28866267 0.36143476 2.7670002 4290772992
0.29351413 0.36143476 2.7670002 4290772992
0.29836562 0.36143476 2.7670002 4290772992
0.30321708 0.36143476 2.7670002 4290772992
0.30806854 0.36143476 2.7670002 4286352521
0.31292003 0.36143476 2.7670002 4290772992
0.31777149 0.36143476 2.7670002 4290772992
0.32262298 0.36143476 2.7670002 4290772992
0.32747445 0.36143476 2.7670002 4285493080
0.33232594 0.36143476 2.7670002 4290772992
0.3371774 0.36143476 2.7670002 4290772992
0.33918583 0.35843042 2.7440002 4290772992
-0.29087186 0.20240392 1.529 4286478201
-0.28706011 0.20160966 1.5230001 4290772992
-0.28438979 0.20160966 1.5230001 4290772992
-0.28171948 0.20160966 1.5230001 4290772992
-0.27776659 0.20068303 1.516 4285226338
-0.27510852 0.20068303 1.516 4284436024
-0.27245048 0.20068303 1.516 4279567360
-0.26979241 0.20068303 1.516 4278779904
-0.26590088 0.19975638 1.5090001 4279763969
-0.26325512 0.19975638 1.5090001 4280290048
-0.26060933 0.19975638 1.5090001 4280355841
-0.25796354 0.19975638 1.5090001 4279963136
-0.25531778 0.19975638 1.5090001 4279963136
-0.25267199 0.19975638 1.5090001 4280356352
-0.2500262 0.19975638 1.5090001 4280553472
-0.24738044 0.19975638 1.5090001 4280554240
-0.24473464 0.19975638 1.5090001 4280554240
-0.24208887 0.19975638 1.5090001 4280553992
-0.23944309 0.19975638 1.5090001 4280422150
-0.2367973 0.19975638 1.5090001 4280356864
-0.23415153 0.19975638 1.5090001 4280027904
-0.23150575 0.19975638 1.5090001 4280158464
-0.22885998 0.19975638 1.5090001 4280092672
-0.22621419 0.19975638 1.5090001 4280616448
-0.22356841 0.19975638 1.5090001 4280682496
-0.22092263 0.19975638 1.5090001 4280356352
-0.21827684 0.19975638 1.5090001 4280224512
-0.21663134 0.20068303 1.516 4280290048
-0.2139733 0.20068303 1.516 4280158464
-0.21131524 0.20068303 1.516 4280549378
-0.20769373 0.19975638 1.5090001 4280614916
-0.20504795 0.19975638 1.5090001 4280092672
-0.20240217 0.19975638 1.5090001 4280092672
-0.19975638 0.19975638 1.5090001 4280092160
-0.19711061 0.19975638 1.5090001 4280289280
-0.19446483 0.19975638 1.5090001 4280290048
-0.19181904 0.19975638 1.5090001 4280290048
-0.18917327 0.19975638 1.5090001 4280290304
-0.18652749 0.19975638 1.5090001 4280092928
-0.18388171 0.19975638 1.5090001 4279699712
-0.18123592 0.19975638 1.5090001 4279633920
-0.17859015 0.19975638 1.5090001 4279633920
-0.17524479 0.19896212 1.503 4279304960
-0.17260952 0.19896212 1.503 4279304960
-0.16918264 0.19803549 1.4960001 4279107584
-0.16655965 0.19803549 1.4960001 4279107584
-0.15769042 0.19049002 1.439 4278910976
-0.15387341 0.1889015 1.427 4278910976
-0.15009849 0.18731298 1.4150001 4278910976
-0.14761752 0.18731298 1.4150001 4278517760
-0.1446237 0.1866511 1.4100001 4278190080
-0.1421515 0.1866511 1.4100001 4278583305
-0.13908492 0.18585683 1.404 4282330690
-0.13662323 0.18585683 1.404 4282858273
-0.13358822 0.18506257 1.3980001 4282134551
-0.13057424 0.18426833 1.3920001 4281015304
-0.12767334 0.18360643 1.3870001 4279633664
-0.12524147 0.18360643 1.3870001 4280027136
-0.12227834 0.18281217 1.381 4280158720
-0.11985699 0.18281217 1.381 4280158464
-0.11743563 0.18281217 1.381 4280158464
-0.11501428 0.18281217 1.381 4279699712
-0.11218528 0.18215029 1.376 4279765504
-0.10977269 0.18215029 1.376 4279896320
-0.10689197 0.18135603 1.3700001 4279764992
-0.10494752 0.18215029 1.376 4279373568
-0.10253493 0.18215029 1.376 4279242240
-0.099685766 0.18135603 1.3700001 4279502081
-0.097283699 0.18135603 1.3700001 4279633410
-0.094881631 0.18135603 1.3700001 4279502081
-0.092479564 0.18135603 1.3700001 4279370496
-0.090077497 0.18135603 1.3700001 4279370496
-0.08767543 0.18135603 1.3700001 4279699460
-0.085273363 0.18135603 1.3700001 4279241476
-0.082871303 0.18135603 1.3700001 4279175682
-0.080469236 0.18135603 1.3700001 4279175682
-0.078067169 0.18135603 1.3700001 4278978048
-0.075665101 0.18135603 1.3700001 4278978304
-0.073263034 0.18135603 1.3700001 4278912512
-0.071171306 0.18215029 1.376 4279239424
-0.0684589 0.18135603 1.3700001 4279502848
-0.066056833 0.18135603 1.3700001 4279502592
-0.063654765 0.18135603 1.3700001 4279370752
-0.061252698 0.18135603 1.3700001 4279633410
-0.058850631 0.18135603 1.3700001 4279765253
-0.056448568 0.18135603 1.3700001 4279765253
-0.05384925 0.18069415 1.365 4279502081
-0.051455949 0.18069415 1.365 4279109633
-0.049062651 0.18069415 1.365 4279175682
-0.046669349 0.18069415 1.365 4279175936
-0.044276051 0.18069415 1.365 4279175936
-0.04188275 0.18069415 1.365 4279372805
-0.039489448 0.18069415 1.365 4279438598
-0.03709615 0.18069415 1.365 4279636233
-0.034702849 0.18069415 1.365 4279636233
-0.032309551 0.18069415 1.365 4279439641
-0.029916249 0.18069415 1.365 4279308312
-0.02752295 0.18069415 1.365 4278980614
-0.0252217 0.18135603 1.3700001 4278914821
-0.02273635 0.18069415 1.365 4279438350
-0.02034305 0.18069415 1.365 4279438350
-0.017949751 0.18069415 1.365 4279635226
-0.01555645 0.18069415 1.365 4279898397
-0.01316315 0.18069415 1.365 4279898899
-0.01076985 0.18069415 1.365 4279898899
-0.0084072333 0.18135603 1.3700001 4279898899
-0.0060051666 0.18135603 1.3700001 4279964692
-0.0036031001 0.18135603 1.3700001 4279964694
-0.0012010334 0.18135603 1.3700001 4279832852
0.0012010334 0.18135603 1.3700001 4279702275
0.0036031001 0.18135603 1.3700001 4279833604
0.0060314666 0.18215029 1.376 4279832852
0.0084440531 0.18215029 1.376 4279701523
0.01085664 0.18215029 1.376 4279964942
0.013269227 0.18215029 1.376 4279964942
0.015681813 0.18215029 1.376 4279964694
0.0180944 0.18215029 1.376 4280030487
0.020581502 0.18281217 1.381 4280423448
0.023002857 0.18281217 1.381 4280489242
0.02542421 0.18281217 1.381 4280162074
0.027845563 0.18281217 1.381 4280359452
0.030398417 0.18360643 1.3870001 4280294173
0.03283029 0.18360643 1.3870001 4280557345
0.035389278 0.18426833 1.3920001 4280755230
0.037829921 0.18426833 1.3920001 4280952352
0.040444139 0.18506257 1.3980001 4281542693
0.043079399 0.18585683 1.404 4281542693
0.045735698 0.1866511 1.4100001 4281215279
0.048378851 0.18731298 1.4150001 4281609781
0.050859816 0.18731298 1.4150001 4282004539
0.053566962 0.18810724 1.4210001 4282662725
0.056295149 0.1889015 1.427 4282860620
0.058797155 0.1889015 1.427 4283978844
0.061556902 0.18969576 1.4330001 4284109901
0.063801169 0.1889015 1.427 4284044108
0.066860735 0.19049002 1.439 4284240735
0.06880518 0.1889015 1.427 4284503907
0.08484818 0.19710885 1.4890001 4290772992
0.15259786 0.34391457 2.598 4286544748
0.15836282 0.34656212 2.618 4286347635
0.16295305 0.34656212 2.618 4290772992
0.1688872 0.34934202 2.6390002 4290772992
0.18522915 0.36324158 2.7440002 4290772992
0.19004029 0.36324158 2.7440002 4290772992
0.19804689 0.36919853 2.789 4290772992
0.2046105 0.3722432 2.812 4290772992
0.20782699 0.36919853 2.789 4290772992
0.21271703 0.36919853 2.789 4290772992
0.21760708 0.36919853 2.789 4290772992
0.22433199 0.3722432 2.812 4290772992
0.22738717 0.36919853 2.789 4290772992
0.23227721 0.36919853 2.789 4290772992
0.23716727 0.36919853 2.789 4290772992
0.24205731 0.36919853 2.789 4290772992
0.24898385 0.3722432 2.812 4290772992
0.25391424 0.3722432 2.812 4286347129
0.25884458 0.3722432 2.812 4290772992
0.26377496 0.3722432 2.812 4290772992
0.26870534 0.3722432 2.812 4290772992
0.27363572 0.3722432 2.812 4290772992
0.27628765 0.36919853 2.789 4290772992
0.28117767 0.36919853 2.789 4290772992
0.28381118 0.36628625 2.7670002 4290772992
0.28866267 0.36628625 2.7670002 4290772992
0.29351413 0.36628625 2.7670002 4290772992
0.29836562 0.36628625 2.7670002 4290772992
0.30321708 0.36628625 2.7670002 4290772992
0.30806854 0.36628625 2.7670002 4290772992
0.31292003 0.36628625 2.7670002 4290772992
0.31777149 0.36628625 2.7670002 4290772992
0.32262298 0.36628625 2.7670002 4286347381
0.32747445 0.36628625 2.7670002 4284768349
0.32956356 0.36324158 2.7440002 4290772992
0.3343747 0.36324158 2.7440002 4290772992
0.33918583 0.36324158 2.7440002 4290772992
-0.29087186 0.20508477 1.529 4286347129
-0.28706011 0.20427999 1.5230001 4290772992
-0.28438979 0.20427999 1.5230001 4290772992
-0.28042462 0.20334108 1.516 4290772992
-0.27776659 0.20334108 1.516 4283909444
-0.27510852 0.20334108 1.516 4283182362
-0.27245048 0.20334108 1.516 4279369728
-0.26979241 0.20334108 1.516 4278779904
-0.26713437 0.20334108 1.516 4280027392
-0.2644763 0.20334108 1.516 4280290048
-0.26060933 0.20240217 1.5090001 4280224256
-0.25916019 0.20334108 1.516 4280094720
-0.25650215 0.20334108 1.516 4279897600
-0.25267199 0.20240217 1.5090001 4280094720
-0.2500262 0.20240217 1.5090001 4280226304
-0.24738044 0.20240217 1.5090001 4280226565
-0.24473464 0.20240217 1.5090001 4280226565
-0.24208887 0.20240217 1.5090001 4280226565
-0.23944309 0.20240217 1.5090001 4280095236
-0.2367973 0.20240217 1.5090001 4280094465
-0.23415153 0.20240217 1.5090001 4279831296
-0.23150575 0.20240217 1.5090001 4280092160
-0.22885998 0.20240217 1.5090001 4280157952
-0.22621419 0.20240217 1.5090001 4280615680
-0.22356841 0.20240217 1.5090001 4280681472
-0.22092263 0.20240217 1.5090001 4280681472
-0.21827684 0.20240217 1.5090001 4280812800
-0.21663134 0.20334108 1.516 4280158464
-0.2139733 0.20334108 1.516 4280158464
-0.21131524 0.20334108 1.516 4280092160
-0.20865719 0.20334108 1.516 4280092160
-0.20599914 0.20334108 1.516 4280092672
-0.20334108 0.20334108 1.516 4280092672
-0.19975638 0.20240217 1.5090001 4280092672
-0.19711061 0.20240217 1.5090001 4280290048
-0.19446483 0.20240217 1.5090001 4280486923
-0.19181904 0.20240217 1.5090001 4280355593
-0.18917327 0.20240217 1.5090001 4280158464
-0.18652749 0.20240217 1.5090001 4280026880
-0.18388171 0.20240217 1.5090001 4279699712
-0.18123592 0.20240217 1.5090001 4279699712
-0.17859015 0.20240217 1.5090001 4279370752
-0.17524479 0.20159739 1.503 4279370752
-0.17180562 0.20065849 1.4960001 4279239168
-0.16771246 0.1989148 1.483 4279107584
-0.16444425 0.19811001 1.4770001 4279107584
-0.15769042 0.19301307 1.439 4278910976
-0.15387341 0.19140351 1.427 4278910976
-0.15073495 0.19059873 1.4210001 4278910976
-0.14761752 0.18979394 1.4150001 4278452224
-0.1446237 0.1891233 1.4100001 4278190080
-0.1421515 0.1891233 1.4100001 4278452230
-0.13908492 0.18831852 1.404 4281804345
-0.13662323 0.18831852 1.404 4282070295
-0.13358822 0.18751374 1.3980001 4281872660
-0.13057424 0.18670896 1.3920001 4281541909
-0.12813359 0.18670896 1.3920001 4279699712
-0.12524147 0.18603832 1.3870001 4280092160
-0.1228096 0.18603832 1.3870001 4280420864
-0.11985699 0.18523353 1.381 4280157958
-0.11743563 0.18523353 1.381 4280157958
-0.11501428 0.18523353 1.381 4279896320
-0.11218528 0.18456288 1.376 4279896320
-0.10977269 0.18456288 1.376 4279896320
-0.10689197 0.18375809 1.3700001 4279896320
-0.10494752 0.18456288 1.376 4279373056
-0.10253493 0.18456288 1.376 4279110144
-0.099685766 0.18375809 1.3700001 4279370752
-0.097283699 0.18375809 1.3700001 4279633920
-0.094881631 0.18375809 1.3700001 4279175682
-0.092479564 0.18375809 1.3700001 4279175682
-0.090077497 0.18375809 1.3700001 4279436288
-0.08767543 0.18375809 1.3700001 4279699460
-0.085273363 0.18375809 1.3700001 4279241476
-0.082871303 0.18375809 1.3700001 4279175682
-0.080469236 0.18375809 1.3700001 4279043840
-0.078067169 0.18375809 1.3700001 4279109633
-0.075665101 0.18375809 1.3700001 4279043840
-0.073263034 0.18375809 1.3700001 4279043840
-0.070860967 0.18375809 1.3700001 4278978304
-0.0684589 0.18375809 1.3700001 4279110144
-0.066056833 0.18375809 1.3700001 4279502081
-0.063654765 0.18375809 1.3700001 4279502081
-0.061252698 0.18375809 1.3700001 4279502592
-0.05863585 0.18308745 1.365 4279765504
-0.056242548 0.18308745 1.365 4279633410
-0.05384925 0.18308745 1.365 4279633410
-0.051455949 0.18308745 1.365 4278848010
-0.049062651 0.18308745 1.365 4278782217
-0.046669349 0.18308745 1.365 4278717441
-0.044276051 0.18308745 1.365 4278849028
-0.04188275 0.18308745 1.365 4279372805
-0.039315868 0.18228267 1.3590001 4279372805
-0.036933091 0.18228267 1.3590001 4279372301
-0.034702849 0.18308745 1.365 4279438350
-0.032309551 0.18308745 1.365 4279635727
-0.029916249 0.18308745 1.365 4279504141
-0.02752295 0.18308745 1.365 4279438598
-0.02512965 0.18308745 1.365 4279504391
-0.02273635 0.18308745 1.365 4279438350
-0.02034305 0.18308745 1.365 4279372301
-0.017949751 0.18308745 1.365 4279635727
-0.01555645 0.18308745 1.365 4280096278
-0.01310529 0.18228267 1.3590001 4280030487
-0.01072251 0.18228267 1.3590001 4279898901
-0.0084072333 0.18375809 1.3700001 4279964694
-0.0060051666 0.18375809 1.3700001 4279964694
-0.0036031001 0.18375809 1.3700001 4280030237
-0.0012010334 0.18375809 1.3700001 4279964444
0.0012010334 0.18375809 1.3700001 4279833356
0.0036031001 0.18375809 1.3700001 4279833356
0.0060314666 0.18456288 1.376 4279702027
0.0084440531 0.18456288 1.376 4279702027
0.01085664 0.18456288 1.376 4279964694
0.013269227 0.18456288 1.376 4280096280
0.015681813 0.18456288 1.376 4280030487
0.018160149 0.18523353 1.381 4280030487
0.020581502 0.18523353 1.381 4280291606
0.023102796 0.18603832 1.3870001 4280489242
0.025534669 0.18603832 1.3870001 4280228380
0.027966544 0.18603832 1.3870001 4280294173
0.030508 0.18670896 1.3920001 4280491551
0.032948639 0.18670896 1.3920001 4280754724
0.035541821 0.18751374 1.3980001 4280755230
0.03799298 0.18751374 1.3980001 4280952352
0.040617719 0.18831852 1.404 4281410857
0.043263499 0.1891233 1.4100001 4281410857
0.045897882 0.18979394 1.4150001 4281608236
0.048378851 0.18979394 1.4150001 4282068787
0.050859816 0.18979394 1.4150001 4281938746
0.053793143 0.19140351 1.427 4282530883
0.05653185 0.19220829 1.4330001 4282859850
0.058797155 0.19140351 1.427 4283846745
0.061556902 0.19220829 1.4330001 4284043856
0.064069428 0.19220829 1.4330001 4283912527
0.067139514 0.19381785 1.4450001 4284240735
0.0705892 0.19636633 1.4640001 4284043356
0.080001093 0.20065849 1.4960001 4290772992
0.082624078 0.20065849 1.4960001 4290772992
0.08524707 0.20065849 1.4960001 4290772992
0.15259786 0.34846973 2.598 4290772992
0.15715303 0.34846973 2.598 4286413174
0.18522915 0.36805272 2.7440002 4290772992
0.19163319 0.37113771 2.7670002 4290772992
0.19968012 0.37717354 2.812 4290772992
0.2046105 0.37717354 2.812 4290772992
0.20954086 0.37717354 2.812 4290772992
0.21271703 0.37408856 2.789 4290772992
0.21760708 0.37408856 2.789 4290772992
0.22249712 0.37408856 2.789 4290772992
0.22738717 0.37408856 2.789 4290772992
0.23227721 0.37408856 2.789 4290772992
0.23716727 0.37408856 2.789 4290772992
0.24205731 0.37408856 2.789 4290772992
0.24694735 0.37408856 2.789 4290772992
0.2518374 0.37408856 2.789 4290772992
0.25672746 0.37408856 2.789 4290772992
0.26161748 0.37408856 2.789 4290772992
0.26650754 0.37408856 2.789 4290772992
0.27139759 0.37408856 2.789 4290772992
0.27628765 0.37408856 2.789 4290772992
0.27895972 0.37113771 2.7670002 4290772992
0.28381118 0.37113771 2.7670002 4290772992
0.28866267 0.37113771 2.7670002 4290772992
0.29351413 0.37113771 2.7670002 4290772992
0.29836562 0.37113771 2.7670002 4286545530
0.30321708 0.37113771 2.7670002 4290772992
0.30806854 0.37113771 2.7670002 4290772992
0.31292003 0.37113771 2.7670002 4290772992
0.31777149 0.37113771 2.7670002 4290772992
0.32262298 0.37113771 2.7670002 4290772992
0.32747445 0.37113771 2.7670002 4285490259
0.33232594 0.37113771 2.7670002 4290772992
0.3343747 0.36805272 2.7440002 4290772992
0.33918583 0.36805272 2.7440002 4290772992
-0.29087186 0.20776561 1.529 4286413691
-0.28819102 0.20776561 1.529 4290772992
-0.28438979 0.20695032 1.5230001 4286279789
-0.28171948 0.20695032 1.5230001 4286014273
-0.27776659 0.20599914 1.516 4281080064
-0.27510852 0.20599914 1.516 4279764224
-0.27245048 0.20599914 1.516 4278452224
-0.26979241 0.20599914 1.516 4278845440
-0.26713437 0.20599914 1.516 4280094467
-0.26569751 0.20695032 1.5230001 4280355843
-0.26181826 0.20599914 1.516 4280290050
-0.25916019 0.20599914 1.516 4280224512
-0.25650215 0.20599914 1.516 4280487680
-0.25384408 0.20599914 1.516 4280422656
-0.2500262 0.20504795 1.5090001 4280422656
-0.24738044 0.20504795 1.5090001 4280487693
-0.24473464 0.20504795 1.5090001 4280421900
-0.24208887 0.20504795 1.5090001 4280487173
-0.23944309 0.20504795 1.5090001 4280290050
-0.2367973 0.20504795 1.5090001 4280158464
-0.23415153 0.20504795 1.5090001 4280092672
-0.23150575 0.20504795 1.5090001 4280092160
-0.22992161 0.20599914 1.516 4280092160
-0.22726355 0.20599914 1.516 4280092928
-0.22356841 0.20504795 1.5090001 4280027136
-0.22194745 0.20599914 1.516 4280681472
-0.22030196 0.20695032 1.5230001 4280812800
-0.21663134 0.20599914 1.516 4280092672
-0.2139733 0.20599914 1.516 4280092672
-0.21229097 0.20695032 1.5230001 4280092160
-0.20865719 0.20599914 1.516 4280092160
-0.20599914 0.20599914 1.516 4280092672
-0.20334108 0.20599914 1.516 4280158464
-0.20068303 0.20599914 1.516 4280290304
-0.19711061 0.20504795 1.5090001 4280356352
-0.19446483 0.20504795 1.5090001 4280356107
-0.19181904 0.20504795 1.5090001 4280224520
-0.18917327 0.20504795 1.5090001 4280158464
-0.18652749 0.20504795 1.5090001 4280092672
-0.18388171 0.20504795 1.5090001 4279896320
-0.18123592 0.20504795 1.5090001 4279764992
-0.17859015 0.20504795 1.5090001 4279634176
-0.17524479 0.20423265 1.503 4279371264
-0.17180562 0.20328146 1.4960001 4279370752
-0.16703393 0.20069969 1.4770001 4279173376
-0.16232885 0.1981179 1.4580001 4279173376
-0.15769042 0.19553612 1.439 4278910976
-0.15387341 0.19390552 1.427 4278910976
-0.15073495 0.19309022 1.4210001 4278845440
-0.14761752 0.19227491 1.4150001 4278779904
-0.1446237 0.19159549 1.4100001 4278452224
-0.1421515 0.19159549 1.4100001 4278452224
-0.13908492 0.19078019 1.404 4281212458
-0.13662323 0.19078019 1.404 4282395392
-0.13358822 0.18996491 1.3980001 4282593024
-0.13113706 0.18996491 1.3980001 4282000384
-0.12868591 0.18996491 1.3980001 4280026368
-0.12524147 0.18847018 1.3870001 4280026372
-0.1228096 0.18847018 1.3870001 4280289800
-0.11985699 0.18765488 1.381 4280355593
-0.11743563 0.18765488 1.381 4280026372
-0.11501428 0.18765488 1.381 4279896320
-0.11259293 0.18765488 1.381 4279896320
-0.10977269 0.18697546 1.376 4279831808
-0.10689197 0.18616016 1.3700001 4279765760
-0.10494752 0.18697546 1.376 4279373056
-0.10253493 0.18697546 1.376 4279241728
-0.10012235 0.18697546 1.376 4279110144
-0.097283699 0.18616016 1.3700001 4279175936
-0.094881631 0.18616016 1.3700001 4279240972
-0.092479564 0.18616016 1.3700001 4279175178
-0.090077497 0.18616016 1.3700001 4278912512
-0.08767543 0.18616016 1.3700001 4279175936
-0.085273363 0.18616016 1.3700001 4279438598
-0.082871303 0.18616016 1.3700001 4279175682
-0.080469236 0.18616016 1.3700001 4279109383
-0.078067169 0.18616016 1.3700001 4279043590
-0.075388953 0.18548074 1.365 4279043592
-0.073263034 0.18616016 1.3700001 4279043592
-0.070860967 0.18616016 1.3700001 4278978048
-0.0684589 0.18616016 1.3700001 4279043840
-0.065815747 0.18548074 1.365 4278978048
-0.063422449 0.18548074 1.365 4278912256
-0.061029151 0.18548074 1.365 4279304960
-0.05863585 0.18548074 1.365 4279370752
-0.056242548 0.18548074 1.365 4279304198
-0.05384925 0.18548074 1.365 4279304198
-0.051229771 0.18466544 1.3590001 4278912004
-0.04884699 0.18466544 1.3590001 4279109383
-0.046464209 0.18466544 1.3590001 4279241476
-0.044081431 0.18466544 1.3590001 4279241476
-0.04169865 0.18466544 1.3590001 4279241476
-0.039315868 0.18466544 1.3590001 4279241476
-0.036933091 0.18466544 1.3590001 4279241476
-0.034550309 0.18466544 1.3590001 4279372805
-0.032167532 0.18466544 1.3590001 4279504391
-0.029916249 0.18548074 1.365 4279504391
-0.027401971 0.18466544 1.3590001 4279439104
-0.025019189 0.18466544 1.3590001 4279504896
-0.02263641 0.18466544 1.3590001 4279636233
-0.02025363 0.18466544 1.3590001 4279504391
-0.017870849 0.18466544 1.3590001 4279635226
-0.01548807 0.18466544 1.3590001 4279964190
-0.01310529 0.18466544 1.3590001 4280226317
-0.01072251 0.18466544 1.3590001 4280094732
-0.0083765499 0.18548074 1.365 4279833356
-0.0060051666 0.18616016 1.3700001 4280096784
-0.0036031001 0.18616016 1.3700001 4280096030
-0.0012010334 0.18616016 1.3700001 4279898395
0.0012010334 0.18616016 1.3700001 4279832852
0.0036031001 0.18616016 1.3700001 4279832852
0.0060314666 0.18697546 1.376 4279833356
0.0084440531 0.18697546 1.376 4279702027
0.01085664 0.18697546 1.376 4279701523
0.013269227 0.18697546 1.376 4280030487
0.015681813 0.18697546 1.376 4280096784
0.018160149 0.18765488 1.381 4280096784
0.020581502 0.18765488 1.381 4280096280
0.023102796 0.18847018 1.3870001 4280162074
0.025534669 0.18847018 1.3870001 4280228380
0.02806736 0.1891496 1.3920001 4280294173
0.030508 0.1891496 1.3920001 4280360222
0.032948639 0.1891496 1.3920001 4280623138
0.035541821 0.18996491 1.3980001 4280821023
0.03799298 0.18996491 1.3980001 4280821023
0.040617719 0.19078019 1.404 4281147685
0.043263499 0.19159549 1.4100001 4281410857
0.045897882 0.19227491 1.4150001 4281281324
0.048378851 0.19227491 1.4150001 4281610033
0.051075477 0.19309022 1.4210001 4282134584
0.053793143 0.19390552 1.427 4282529086
0.05653185 0.19472082 1.4330001 4282794056
0.059044376 0.19472082 1.4330001 4283780952
0.061814643 0.19553612 1.439 4283780940
0.064337693 0.19553612 1.439 4283780940
0.06774354 0.1981179 1.4580001 4283845732
0.0705892 0.1989332 1.4640001 4283845732
0.074755117 0.20328146 1.4960001 4284896605
0.077378109 0.20328146 1.4960001 4290772992
0.082624078 0.20328146 1.4960001 4290772992
0.08524707 0.20328146 1.4960001 4290772992
0.18678172 0.37598917 2.7670002 4290772992
0.19315684 0.37897861 2.789 4286544524
0.19968012 0.38210392 2.812 4286347099
0.2046105 0.38210392 2.812 4290772992
0.20954086 0.38210392 2.812 4290772992
0.21271703 0.37897861 2.789 4290772992
0.21940161 0.38210392 2.812 4290772992
0.22249712 0.37897861 2.789 4290772992
0.22738717 0.37897861 2.789 4290772992
0.23044498 0.37598917 2.7670002 4284771177
0.23716727 0.37897861 2.789 4290772992
0.24205731 0.37897861 2.789 4290772992
0.24694735 0.37897861 2.789 4290772992
0.2518374 0.37897861 2.789 4290772992
0.25672746 0.37897861 2.789 4290772992
0.26161748 0.37897861 2.789 4290772992
0.26650754 0.37897861 2.789 4290772992
0.27139759 0.37897861 2.789 4290772992
0.27410823 0.37598917 2.7670002 4290772992
0.27895972 0.37598917 2.7670002 4290772992
0.28381118 0.37598917 2.7670002 4290772992
0.28866267 0.37598917 2.7670002 4290772992
0.29351413 0.37598917 2.7670002 4290772992
0.29836562 0.37598917 2.7670002 4290772992
0.30321708 0.37598917 2.7670002 4290772992
0.30806854 0.37598917 2.7670002 4290772992
0.31292003 0.37598917 2.7670002 4290772992
0.31777149 0.37598917 2.7670002 4290772992
0.32262298 0.37598917 2.7670002 4290772992
0.32747445 0.37598917 2.7670002 4285228638
0.33232594 0.37598917 2.7670002 4290772992
0.3343747 0.37286386 2.7440002 4290772992
0.33918583 0.37286386 2.7440002 4290772992
0.34399697 0.37286386 2.7440002 4290772992
0.34880814 0.37286386 2.7440002 4290772992
-0.2935527 0.21044646 1.529 4286085240
-0.28973043 0.20962064 1.5230001 4286282619
-0.28706011 0.20962064 1.5230001 4290772992
-0.28438979 0.20962064 1.5230001 4284897634
-0.28171948 0.20962064 1.5230001 4283778860
-0.27904913 0.20962064 1.5230001 4278976512
-0.27637881 0.20962064 1.5230001 4279107584
-0.27245048 0.20865719 1.516 4279173120
-0.27103814 0.20962064 1.5230001 4279370752
-0.26836783 0.20962064 1.5230001 4280160261
-0.26569751 0.20962064 1.5230001 4280356864
-0.26181826 0.20865719 1.516 4280422656
-0.25916019 0.20865719 1.516 4281010944
-0.25768653 0.20962064 1.5230001 4281471491
-0.25384408 0.20865719 1.516 4280751362
-0.25118604 0.20865719 1.516 4280554240
-0.24852799 0.20865719 1.516 4280422150
-0.24586993 0.20865719 1.516 4280290563
-0.24321188 0.20865719 1.516 4280355843
-0.24055383 0.20865719 1.516 4280290050
-0.23789577 0.20865719 1.516 4280158720
-0.23523772 0.20865719 1.516 4280092928
-0.23257966 0.20865719 1.516 4280092928
-0.22992161 0.20865719 1.516 4280027136
-0.22726355 0.20865719 1.516 4280092928
-0.2246055 0.20865719 1.516 4280027136
-0.22194745 0.20865719 1.516 4280092928
-0.22030196 0.20962064 1.5230001 4280092928
-0.21763162 0.20962064 1.5230001 4280092160
-0.21496129 0.20962064 1.5230001 4280289280
-0.21229097 0.20962064 1.5230001 4280092672
-0.20962064 0.20962064 1.5230001 4280026880
-0.20599914 0.20865719 1.516 4280092672
-0.20334108 0.20865719 1.516 4280224256
-0.20068303 0.20865719 1.516 4280290048
-0.19802497 0.20865719 1.516 4280355841
-0.19536692 0.20865719 1.516 4280355843
-0.19270886 0.20865719 1.516 4280290050
-0.19005081 0.20865719 1.516 4279897344
-0.18739276 0.20865719 1.516 4279897344
-0.1847347 0.20865719 1.516 4279699712
-0.18123592 0.20769373 1.5090001 4279370752
-0.17859015 0.20769373 1.5090001 4279370752
-0.17594437 0.20769373 1.5090001 4279436544
-0.17180562 0.20590445 1.4960001 4278912512
-0.16771246 0.20411518 1.483 4278912512
-0.16088149 0.19888498 1.4450001 4279107584
-0.15769042 0.19805916 1.439 4278910976
-0.15387341 0.19640753 1.427 4278910976
-0.1513714 0.19640753 1.427 4278779904
-0.14824346 0.1955817 1.4210001 4279107584
-0.14513655 0.19475588 1.4150001 4278976512
-0.14265558 0.19475588 1.4150001 4278976512
-0.1396793 0.1940677 1.4100001 4281276445
-0.13662323 0.19324188 1.404 4281605632
-0.13416156 0.19324188 1.404 4282855428
-0.13113706 0.19241606 1.3980001 4282394880
-0.12868591 0.19241606 1.3980001 4279960576
-0.12524147 0.19090205 1.3870001 4279895042
-0.1228096 0.19090205 1.3870001 4280486923
-0.12037773 0.19090205 1.3870001 4280092165
-0.11743563 0.19007623 1.381 4279895042
-0.11501428 0.19007623 1.381 4279960576
-0.11218528 0.18938805 1.376 4279960576
-0.10977269 0.18938805 1.376 4279502848
-0.10689197 0.18856223 1.3700001 4279765760
-0.10494752 0.18938805 1.376 4279241476
-0.10253493 0.18938805 1.376 4279175682
-0.099685766 0.18856223 1.3700001 4279175936
-0.097283699 0.18856223 1.3700001 4279175936
-0.094881631 0.18856223 1.3700001 4279109633
-0.092479564 0.18856223 1.3700001 4279043840
-0.090077497 0.18856223 1.3700001 4278978048
-0.08767543 0.18856223 1.3700001 4279109633
-0.085273363 0.18856223 1.3700001 4279109383
-0.082871303 0.18856223 1.3700001 4279109383
-0.080469236 0.18856223 1.3700001 4279109633
-0.078067169 0.18856223 1.3700001 4279043840
-0.075388953 0.18787405 1.365 4278978048
-0.073263034 0.18856223 1.3700001 4279043840
-0.07060235 0.18787405 1.365 4278978048
-0.068209052 0.18787405 1.365 4278912256
-0.065815747 0.18787405 1.365 4278978048
-0.063422449 0.18787405 1.365 4278978048
-0.061029151 0.18787405 1.365 4278978048
-0.05863585 0.18787405 1.365 4278912256
-0.056242548 0.18787405 1.365 4278650631
-0.053612549 0.18704823 1.3590001 4278782217
-0.051229771 0.18704823 1.3590001 4279043592
-0.04884699 0.18704823 1.3590001 4279240972
-0.046464209 0.18704823 1.3590001 4279372051
-0.044081431 0.18704823 1.3590001 4279372051
-0.04169865 0.18704823 1.3590001 4279438598
-0.039315868 0.18704823 1.3590001 4279438598
-0.036933091 0.18704823 1.3590001 4279438598
-0.034550309 0.18704823 1.3590001 4279438598
-0.032167532 0.18704823 1.3590001 4279438598
-0.02978475 0.18704823 1.3590001 4279438598
-0.027401971 0.18704823 1.3590001 4279438598
-0.02512965 0.18787405 1.365 4279504391
-0.02263641 0.18704823 1.3590001 4279702027
-0.02034305 0.18787405 1.365 4279899149
-0.017949751 0.18787405 1.365 4279899149
-0.01555645 0.18787405 1.365 4280030735
-0.01316315 0.18787405 1.365 4280030487
-0.01076985 0.18787405 1.365 4279898901
-0.0084072333 0.18856223 1.3700001 4279899149
-0.0060051666 0.18856223 1.3700001 4280030735
-0.0036031001 0.18856223 1.3700001 4280030487
-0.0012010334 0.18856223 1.3700001 4279898901
0.0012010334 0.18856223 1.3700001 4279899149
0.0036031001 0.18856223 1.3700001 4279833356
0.0060314666 0.18938805 1.376 4279899149
0.0084440531 0.18938805 1.376 4279899149
0.01085664 0.18938805 1.376 4279964942
0.013269227 0.18938805 1.376 4279899149
0.015681813 0.18938805 1.376 4280357903
0.018160149 0.19007623 1.381 4280423696
0.020670922 0.19090205 1.3870001 4280162074
0.023102796 0.19090205 1.3870001 4280162074
0.025534669 0.19090205 1.3870001 4280163091
0.02806736 0.19159023 1.3920001 4280228884
0.030508 0.19159023 1.3920001 4280360222
0.033090658 0.19241606 1.3980001 4280754724
0.035541821 0.19241606 1.3980001 4280755230
0.03799298 0.19241606 1.3980001 4280821023
0.040617719 0.19324188 1.404 4280952100
0.043416917 0.19475588 1.4150001 4281149736
0.045897882 0.19475588 1.4150001 4281412653
0.048378851 0.19475588 1.4150001 4281741875
0.051075477 0.1955817 1.4210001 4282004539
0.053793143 0.19640753 1.427 4282333503
0.05653185 0.19723335 1.4330001 4282794056
0.058797155 0.19640753 1.427 4283583573
0.061556902 0.19723335 1.4330001 4283518543
0.064069428 0.19723335 1.4330001 4283452750
0.067464761 0.19984844 1.452 4283648083
0.0705892 0.20150007 1.4640001 4283977048
0.074755117 0.20590445 1.4960001 4284503394
0.077378109 0.20590445 1.4960001 4290772992
0.082624078 0.20590445 1.4960001 4290772992
0.17903724 0.37478465 2.723 4290772992
0.18678172 0.38084066 2.7670002 4290772992
0.19315684 0.38386866 2.789 4290772992
0.19968012 0.3870343 2.812 4286542947
0.2046105 0.3870343 2.812 4290772992
0.20954086 0.3870343 2.812 4290772992
0.21447124 0.3870343 2.812 4290772992
0.21940161 0.3870343 2.812 4290772992
0.22433199 0.3870343 2.812 4290772992
0.22738717 0.38386866 2.789 4290772992
0.23227721 0.38386866 2.789 4286154626
0.23716727 0.38386866 2.789 4290772992
0.24205731 0.38386866 2.789 4290772992
0.24694735 0.38386866 2.789 4290772992
0.2518374 0.38386866 2.789 4290772992
0.25672746 0.38386866 2.789 4290772992
0.26161748 0.38386866 2.789 4290772992
0.26650754 0.38386866 2.789 4290772992
0.27139759 0.38386866 2.789 4290772992
0.27410823 0.38084066 2.7670002 4290772992
0.27895972 0.38084066 2.7670002 4290772992
0.28381118 0.38084066 2.7670002 4290772992
0.28866267 0.38084066 2.7670002 4290772992
0.29351413 0.38084066 2.7670002 4290772992
0.29836562 0.38084066 2.7670002 4290772992
0.30321708 0.38084066 2.7670002 4286019685
0.30806854 0.38084066 2.7670002 4290772992
0.31292003 0.38084066 2.7670002 4290772992
0.31777149 0.38084066 2.7670002 4290772992
0.32262298 0.38084066 2.7670002 4286413410
0.32747445 0.38084066 2.7670002 4285492308
0.33232594 0.38084066 2.7670002 4290772992
0.3371774 0.38084066 2.7670002 4290772992
0.34202886 0.38084066 2.7670002 4290772992
0.34399697 0.377675 2.7440002 4290772992
0.34880814 0.377675 2.7440002 4290772992
-0.29623356 0.21312732 1.529 4290772992
-0.2935527 0.21312732 1.529 4290772992
-0.29087186 0.21312732 1.529 4290772992
-0.28706011 0.21229097 1.5230001 4290772992
-0.28438979 0.21229097 1.5230001 4282067506
-0.28171948 0.21229097 1.5230001 4280352768
-0.27904913 0.21229097 1.5230001 4279500800
-0.27637881 0.21229097 1.5230001 4279632399
-0.27370849 0.21229097 1.5230001 4279895315
-0.27103814 0.21229097 1.5230001 4280026372
-0.26836783 0.21229097 1.5230001 4280157958
-0.26569751 0.21229097 1.5230001 4280356864
-0.26302716 0.21229097 1.5230001 4280422656
-0.26035684 0.21229097 1.5230001 4280488448
-0.25768653 0.21229097 1.5230001 4280422656
-0.25501621 0.21229097 1.5230001 4280555264
-0.25234586 0.21229097 1.5230001 4280489472
-0.24967554 0.21229097 1.5230001 4280488448
-0.24700521 0.21229097 1.5230001 4280290816
-0.24321188 0.21131524 1.516 4280093961
-0.24166456 0.21229097 1.5230001 4279896839
-0.23899424 0.21229097 1.5230001 4280158464
-0.23632391 0.21229097 1.5230001 4280158464
-0.23365358 0.21229097 1.5230001 4280158720
-0.23098326 0.21229097 1.5230001 4280092928
-0.22726355 0.21131524 1.516 4280092928
-0.2246055 0.21131524 1.516 4280027136
-0.22194745 0.21131524 1.516 4280092928
-0.21928939 0.21131524 1.516 4280027136
-0.21763162 0.21229097 1.5230001 4280092160
-0.21496129 0.21229097 1.5230001 4280157952
-0.21229097 0.21229097 1.5230001 4280092928
-0.20962064 0.21229097 1.5230001 4280158720
-0.20695032 0.21229097 1.5230001 4279896320
-0.20427999 0.21229097 1.5230001 4280028160
-0.20160966 0.21229097 1.5230001 4280158464
-0.19802497 0.21131524 1.516 4280290048
-0.19536692 0.21131524 1.516 4280290048
-0.19270886 0.21131524 1.516 4280290048
-0.19005081 0.21131524 1.516 4279897344
-0.18739276 0.21131524 1.516 4279897344
-0.1847347 0.21131524 1.516 4279896320
-0.18123592 0.2103395 1.5090001 4279699200
-0.17859015 0.2103395 1.5090001 4279502848
-0.17594437 0.2103395 1.5090001 4279305216
-0.17180562 0.20852745 1.4960001 4279305216
-0.16771246 0.20671538 1.483 4279173632
-0.16511227 0.20671538 1.483 4279173376
-0.15769042 0.20058221 1.439 4278910976
-0.15387341 0.19890954 1.427 4278910976
-0.1513714 0.19890954 1.427 4278779904
-0.1488694 0.19890954 1.427 4278910976
-0.14575197 0.19807319 1.4210001 4278714368
-0.14265558 0.19723685 1.4150001 4278976515
-0.1396793 0.19653989 1.4100001 4280749597
-0.13720711 0.19653989 1.4100001 4281868800
-0.13416156 0.19570357 1.404 4282658560
-0.13113706 0.19486722 1.3980001 4281740288
-0.12868591 0.19486722 1.3980001 4279437568
-0.12569296 0.19403088 1.3920001 4280026372
-0.1228096 0.19333392 1.3870001 4280289800
-0.12037773 0.19333392 1.3870001 4280158464
-0.11794586 0.19333392 1.3870001 4279895296
-0.11501428 0.1924976 1.381 4279960576
-0.11259293 0.1924976 1.381 4279631872
-0.10977269 0.19180064 1.376 4279239168
-0.10736011 0.19180064 1.376 4279765504
-0.10494752 0.19180064 1.376 4279372301
-0.10253493 0.19180064 1.376 4279240972
-0.099685766 0.1909643 1.3700001 4279241476
-0.097283699 0.1909643 1.3700001 4279175682
-0.094881631 0.1909643 1.3700001 4279175936
-0.092479564 0.1909643 1.3700001 4279175936
-0.090077497 0.1909643 1.3700001 4279043840
-0.08767543 0.1909643 1.3700001 4279043840
-0.085273363 0.1909643 1.3700001 4278978048
-0.082871303 0.1909643 1.3700001 4278978048
-0.080469236 0.1909643 1.3700001 4279370496
-0.078067169 0.1909643 1.3700001 4279238912
-0.075388953 0.19026735 1.365 4279304960
-0.072995648 0.19026735 1.365 4279436544
-0.07060235 0.19026735 1.365 4279370496
-0.068209052 0.19026735 1.365 4279436288
-0.065815747 0.19026735 1.365 4279043592
-0.063422449 0.19026735 1.365 4279372301
-0.061029151 0.19026735 1.365 4279241728
-0.05863585 0.19026735 1.365 4279110144
-0.056242548 0.19026735 1.365 4279109383
-0.053612549 0.18943101 1.3590001 4279241226
