# .PCD v0.7 - Point Cloud Data file format
VERSION 0.7
FIELDS x y z rgba
SIZE 4 4 4 4
TYPE F F F U
COUNT 1 1 1 1
WIDTH 1134
HEIGHT 1
VIEWPOINT 0 0 0 1 0 0 0
POINTS 1134
DATA ascii
0.6969921 0.40694866 1.6880001 4278190082
0.703269 0.40887734 1.6960001 4278190083
0.70291132 0.40694866 1.6880001 4278190082
0.70587093 0.40694866 1.6880001 4278190080
0.7088306 0.40694866 1.6880001 4278190082
0.7117902 0.40694866 1.6880001 4278190080
0.71474981 0.40694866 1.6880001 4278190080
0.71770948 0.40694866 1.6880001 4278190081
0.72066909 0.40694866 1.6880001 4278190080
0.7236287 0.40694866 1.6880001 4278190081
0.73003191 0.40887734 1.6960001 4279308312
0.73300552 0.40887734 1.6960001 4279964694
0.73988473 0.41104707 1.705 4280425245
0.74287421 0.41104707 1.705 4280294177
0.74936324 0.41297576 1.7130001 4280294177
0.75236672 0.41297576 1.7130001 4281084189
0.7553702 0.41297576 1.7130001 4281150238
0.75837362 0.41297576 1.7130001 4281019679
0.76537734 0.41514549 1.7220001 4281414437
0.76839656 0.41514549 1.7220001 4282006074
0.77141583 0.41514549 1.7220001 4282466625
0.77443504 0.41514549 1.7220001 4282466373
0.78151762 0.41731524 1.7310001 4282400580
0.78455269 0.41731524 1.7310001 4282139207
0.79122758 0.4192439 1.7390001 4282007621
0.79062271 0.41731524 1.7310001 4281874488
0.79365772 0.41731524 1.7310001 4281940281
0.79669273 0.41731524 1.7310001 4281809715
0.79556972 0.41514549 1.7220001 4282006837
0.79858899 0.41514549 1.7220001 4282006837
0.79741865 0.41297576 1.7130001 4282270266
0.80042207 0.41297576 1.7130001 4282334535
0.80342555 0.41297576 1.7130001 4282334535
0.81066591 0.41514549 1.7220001 4282400330
0.81368518 0.41514549 1.7220001 4282860881
0.81670439 0.41514549 1.7220001 4282336586
0.81972367 0.41514549 1.7220001 4281810241
0.82274288 0.41514549 1.7220001 4281481025
0.82576215 0.41514549 1.7220001 4279573028
0.83311296 0.41731524 1.7310001 4278916369
0.83614802 0.41731524 1.7310001 4278192390
0.84306139 0.4192439 1.7390001 4279836456
0.85048938 0.42141366 1.748 4282270540
0.84915948 0.4192439 1.7390001 4282861663
0.85661906 0.42141366 1.748 4283388007
0.85525757 0.4192439 1.7390001 4283388261
0.85435814 0.41731524 1.7310001 4283585383
0.85739315 0.41731524 1.7310001 4283586417
0.86042815 0.41731524 1.7310001 4283915381
0.86346316 0.41731524 1.7310001 4284376934
0.86199301 0.41514549 1.7220001 4285232243
0.86501223 0.41514549 1.7220001 4285429663
0.8680315 0.41514549 1.7220001 4286284972
0.87105072 0.41514549 1.7220001 4286284711
0.87406999 0.41514549 1.7220001 4286284711
0.87250513 0.41297576 1.7130001 4285758878
0.87141979 0.41104707 1.705 4285561756
0.87851202 0.41297576 1.7130001 4285758880
0.8815155 0.41297576 1.7130001 4285824673
0.88451898 0.41297576 1.7130001 4286021012
0.8875224 0.41297576 1.7130001 4285955219
0.89520466 0.41514549 1.7220001 4286021012
0.89822388 0.41514549 1.7220001 4286218134
0.90124315 0.41514549 1.7220001 4286480539
0.90426236 0.41514549 1.7220001 4286546332
0.88515282 0.40502 1.6800001 4286415516
0.02423545 0.44754797 1.8430001 4290772992
0.027466843 0.44754797 1.8430001 4290772992
0.030698236 0.44754797 1.8430001 4286469888
0.033745531 0.44511962 1.8330001 4290772992
0.035991549 0.43346345 1.7850001 4290772992
0.039121252 0.43346345 1.7850001 4290772992
0.04225095 0.43346345 1.7850001 4278321152
0.045380648 0.43346345 1.7850001 4278190080
0.04851035 0.43346345 1.7850001 4278190080
0.051640049 0.43346345 1.7850001 4278190080
0.054769751 0.43346345 1.7850001 4278190080
0.05760752 0.43127793 1.7760001 4278190080
0.060721438 0.43127793 1.7760001 4278190080
0.06383536 0.43127793 1.7760001 4278190080
0.066949278 0.43127793 1.7760001 4278190080
0.070063196 0.43127793 1.7760001 4278190080
0.07276509 0.42884955 1.766 4278190080
0.075861476 0.42884955 1.766 4278517760
0.078957863 0.42884955 1.766 4278714368
0.082054242 0.42884955 1.766 4278714368
0.085150629 0.42884955 1.766 4278321152
0.087797292 0.42666402 1.7570001 4278190080
0.090412386 0.4244785 1.748 4278912256
0.093477212 0.4244785 1.748 4282459933
0.096542038 0.4244785 1.748 4284697152
0.099606864 0.4244785 1.748 4284043606
0.10320032 0.42666402 1.7570001 4283846484
0.10628093 0.42666402 1.7570001 4283780434
0.10992172 0.42884955 1.766 4283912277
0.11301811 0.42884955 1.766 4283913301
0.116772 0.43127793 1.7760001 4283650385
0.11988592 0.43127793 1.7760001 4283584338
0.12299984 0.43127793 1.7760001 4283321423
0.12611376 0.43127793 1.7760001 4283189585
0.12850004 0.42884955 1.766 4283057742
0.13159643 0.42884955 1.766 4282795086
0.13545552 0.43127793 1.7760001 4282466377
0.13856944 0.43127793 1.7760001 4282399297
0.14088559 0.42884955 1.766 4281938746
0.14398198 0.42884955 1.766 4281281072
0.14791121 0.43127793 1.7760001 4280557093
0.15102512 0.43127793 1.7760001 4279111182
0.15413904 0.43127793 1.7760001 4278190080
0.15636753 0.42884955 1.766 4278190080
0.15865125 0.42666402 1.7570001 4278190080
0.1625603 0.42884955 1.766 4278190080
0.16565669 0.42884955 1.766 4278190080
0.16970864 0.43127793 1.7760001 4278190080
0.17282256 0.43127793 1.7760001 4278190080
0.17593648 0.43127793 1.7760001 4278190080
0.1790504 0.43127793 1.7760001 4278190080
0.18216431 0.43127793 1.7760001 4278190080
0.18527824 0.43127793 1.7760001 4278190080
0.18733139 0.42884955 1.766 4278190080
0.19042778 0.42884955 1.766 4278190080
0.19253792 0.42666402 1.7570001 4278190080
0.1946165 0.4244785 1.748 4278190080
0.19666351 0.42229295 1.7390001 4278190080
0.19971256 0.42229295 1.7390001 4278190080
0.20276161 0.42229295 1.7390001 4278190080
0.20581065 0.42229295 1.7390001 4278190080
0.2088597 0.42229295 1.7390001 4278190080
0.21190874 0.42229295 1.7390001 4278190080
0.21607028 0.4244785 1.748 4278190080
0.22026338 0.42666402 1.7570001 4278190080
0.22448803 0.42884955 1.766 4278190080
0.22642459 0.42666402 1.7570001 4278190080
0.22832958 0.4244785 1.748 4278191104
0.23139441 0.4244785 1.748 4278192128
0.23445924 0.4244785 1.748 4279111182
0.23752406 0.4244785 1.748 4279176975
0.19723335 0.34798494 1.4330001 4279372805
0.19974586 0.34798494 1.4330001 4279899149
0.20141153 0.34652793 1.427 4280358950
0.20391354 0.34652793 1.427 4278648844
0.20554765 0.3450709 1.4210001 4278190080
0.20803913 0.3450709 1.4210001 4278190080
0.21053062 0.3450709 1.4210001 4278190085
0.21212265 0.34361389 1.4150001 4279902765
0.21460362 0.34361389 1.4150001 4281084189
0.21708459 0.34361389 1.4150001 4282005291
0.21956556 0.34361389 1.4150001 4282529086
0.22204651 0.34361389 1.4150001 4282331707
0.28949726 0.43346345 1.7850001 4281675826
0.29115152 0.43127793 1.7760001 4281610033
0.29426545 0.43127793 1.7760001 4282067754
0.29570493 0.42884955 1.766 4284107593
0.2988013 0.42884955 1.766 4285558144
0.30035916 0.42666402 1.7570001 4284570993
0.30343977 0.42666402 1.7570001 4283845959
0.30652037 0.42666402 1.7570001 4286346350
0.30960098 0.42666402 1.7570001 4286474576
0.31268159 0.42666402 1.7570001 4280619008
0.31576219 0.42666402 1.7570001 4279436288
0.3188428 0.42666402 1.7570001 4278845440
0.2584466 0.32103008 1.322 4286470921
0.26076451 0.32103008 1.322 4285619017
0.26308241 0.32103008 1.322 4286342484
0.26540032 0.32103008 1.322 4285357406
0.26771823 0.32103008 1.322 4281738791
0.27003613 0.32103008 1.322 4282457088
0.27359012 0.32248709 1.3280001 4279631872
0.27591854 0.32248709 1.3280001 4278190080
0.29177308 0.33535743 1.381 4278452224
0.29419443 0.33535743 1.381 4278190080
0.29661578 0.33535743 1.381 4278190084
0.29795444 0.33414325 1.376 4278714641
0.30036703 0.33414325 1.376 4282325504
0.30277961 0.33414325 1.376 4284759831
0.30386144 0.33268625 1.3700001 4284232195
0.30022764 0.32612965 1.3430001 4284034560
0.30032933 0.32370126 1.3330001 4284173620
0.30153126 0.32248709 1.3280001 4286476119
0.30248681 0.32103008 1.322 4285887121
0.30480471 0.32103008 1.322 4282005334
0.30712262 0.32103008 1.322 4280556037
0.30944052 0.32103008 1.322 4281937690
0.37957737 0.38513896 1.5860001 4281676582
0.38067058 0.38343909 1.5790001 4281742375
0.38343909 0.38343909 1.5790001 4281414437
0.38791972 0.38513896 1.5860001 4281414437
0.38897613 0.38343909 1.5790001 4281216283
0.39174464 0.38343909 1.5790001 4280558096
0.39451316 0.38343909 1.5790001 4281015306
0.39728165 0.38343909 1.5790001 4281344015
0.40005016 0.38343909 1.5790001 4281805068
0.40460446 0.38513896 1.5860001 4282002703
0.40944016 0.38708165 1.5940001 4281806857
0.41223496 0.38708165 1.5940001 4282201359
0.41502976 0.38708165 1.5940001 4281874456
0.4178246 0.38708165 1.5940001 4281743127
0.4206194 0.38708165 1.5940001 4281939497
0.42341423 0.38708165 1.5940001 4282071340
0.42620903 0.38708165 1.5940001 4282464297
0.42900383 0.38708165 1.5940001 4282135332
0.43179867 0.38708165 1.5940001 4282134830
0.43459347 0.38708165 1.5940001 4281937451
0.43738827 0.38708165 1.5940001 4281805865
0.4401831 0.38708165 1.5940001 4281674535
0.44297791 0.38708165 1.5940001 4281542693
0.44577274 0.38708165 1.5940001 4281082142
0.45053741 0.38878149 1.6010001 4280423448
0.45334449 0.38878149 1.6010001 4280225813
0.45615157 0.38878149 1.6010001 4279439641
0.45895866 0.38878149 1.6010001 4279176725
0.46176577 0.38878149 1.6010001 4279437844
0.46457285 0.38878149 1.6010001 4279109135
0.46737993 0.38878149 1.6010001 4278190080
0.47018701 0.38878149 1.6010001 4278190080
0.47299409 0.38878149 1.6010001 4278190080
0.47817871 0.39072418 1.6090001 4278190080
0.48099983 0.39072418 1.6090001 4278190080
0.48592582 0.39242405 1.6160001 4278190080
0.48875919 0.39242405 1.6160001 4278190080
0.49159259 0.39242405 1.6160001 4278190080
0.49687362 0.39436674 1.6240001 4278190080
0.49972105 0.39436674 1.6240001 4278190080
0.50009274 0.39242405 1.6160001 4278190080
0.50292611 0.39242405 1.6160001 4278190080
0.50575954 0.39242405 1.6160001 4278190080
0.5085929 0.39242405 1.6160001 4278190080
0.51142627 0.39242405 1.6160001 4278190080
0.5142597 0.39242405 1.6160001 4278190080
0.5196529 0.39436674 1.6240001 4278190080
0.52507424 0.39630944 1.6320001 4278190080
0.52793568 0.39630944 1.6320001 4278190080
0.53079712 0.39630944 1.6320001 4278190080
0.53104258 0.39436674 1.6240001 4278190080
0.53652 0.39630944 1.6320001 4278190080
0.53938144 0.39630944 1.6320001 4278190080
0.54224288 0.39630944 1.6320001 4278190080
0.54744238 0.3980093 1.6390001 4278190080
0.5503161 0.3980093 1.6390001 4278190080
0.55318981 0.3980093 1.6390001 4278911500
0.55606353 0.3980093 1.6390001 4278977293
0.55893725 0.3980093 1.6390001 4279045389
0.56181097 0.3980093 1.6390001 4279505940
0.56468469 0.3980093 1.6390001 4279179035
0.56755841 0.3980093 1.6390001 4279310621
0.57043207 0.3980093 1.6390001 4279245078
0.57330579 0.3980093 1.6390001 4279311127
0.5761795 0.3980093 1.6390001 4279703319
0.57905322 0.3980093 1.6390001 4279637526
0.58476734 0.39995199 1.6470001 4280096784
0.58765507 0.39995199 1.6470001 4280491286
0.59054285 0.39995199 1.6470001 4280294173
0.59631306 0.40189469 1.6550001 4280491551
0.59921479 0.40189469 1.6550001 4280427292
0.60211658 0.40189469 1.6550001 4280558878
0.60501832 0.40189469 1.6550001 4280426540
0.60498154 0.39995199 1.6470001 4280229162
0.60786927 0.39995199 1.6470001 4279968035
0.61075699 0.39995199 1.6470001 4279770913
0.61364472 0.39995199 1.6470001 4279442464
0.6165325 0.39995199 1.6470001 4279244828
0.61942023 0.39995199 1.6470001 4279310119
0.62533069 0.40189469 1.6550001 4279178533
0.62823248 0.40189469 1.6550001 4279311127
0.63418502 0.40383738 1.6630001 4278982163
0.63710082 0.40383738 1.6630001 4278191875
0.64001662 0.40383738 1.6630001 4278190592
0.6460253 0.40578008 1.6710001 4278190091
0.64895511 0.40578008 1.6710001 4278190087
0.65188497 0.40578008 1.6710001 4278190097
0.65774459 0.40578008 1.6710001 4278190080
0.66717839 0.4079656 1.6800001 4278190094
0.67012399 0.4079656 1.6800001 4278190094
0.6730696 0.4079656 1.6800001 4278190084
0.6760152 0.4079656 1.6800001 4278190086
0.6789608 0.4079656 1.6800001 4278190085
0.6819064 0.4079656 1.6800001 4278190085
0.684852 0.4079656 1.6800001 4278190082
0.69107282 0.40990829 1.6880001 4278190085
0.69403243 0.40990829 1.6880001 4278190151
0.70029533 0.41185099 1.6960001 4278190159
0.703269 0.41185099 1.6960001 4278850865
0.70291132 0.40990829 1.6880001 4278191650
0.70587093 0.40990829 1.6880001 4278190091
0.7088306 0.40990829 1.6880001 4278190092
0.7117902 0.40990829 1.6880001 4278190093
0.71136242 0.4079656 1.6800001 4278190098
0.71770948 0.40990829 1.6880001 4278191112
0.71725357 0.4079656 1.6800001 4278455569
0.7236287 0.40990829 1.6880001 4279637526
0.72658837 0.40990829 1.6880001 4279900698
0.72954798 0.40990829 1.6880001 4280293403
0.73988473 0.41403651 1.705 4280556831
0.74287421 0.41403651 1.705 4280820773
0.74586362 0.41403651 1.705 4281544240
0.74885303 0.41403651 1.705 4281741623
0.7553702 0.41597921 1.7130001 4282136381
0.75837362 0.41597921 1.7130001 4281809715
0.7613771 0.41597921 1.7130001 4282270266
0.76438057 0.41597921 1.7130001 4282532422
0.76738405 0.41597921 1.7130001 4282466373
0.77038747 0.41597921 1.7130001 4282400328
0.77339095 0.41597921 1.7130001 4282400328
0.77639443 0.41597921 1.7130001 4282268742
0.7834928 0.41816473 1.7220001 4282071619
0.78651202 0.41816473 1.7220001 4281088570
0.78953123 0.41816473 1.7220001 4280956727
0.79669273 0.42035025 1.7310001 4281086769
0.79972774 0.42035025 1.7310001 4281218611
0.80276281 0.42035025 1.7310001 4281481527
0.8016082 0.41816473 1.7220001 4281810491
0.80042207 0.41597921 1.7130001 4282268742
0.80342555 0.41597921 1.7130001 4282466377
0.80642903 0.41597921 1.7130001 4282073418
0.80943245 0.41597921 1.7130001 4282402127
0.81243593 0.41597921 1.7130001 4282401614
0.81972367 0.41816473 1.7220001 4282072392
0.82274288 0.41816473 1.7220001 4282004289
0.82576215 0.41816473 1.7220001 4280491050
0.83311296 0.42035025 1.7310001 4280422942
0.83614802 0.42035025 1.7310001 4280357149
0.83918303 0.42035025 1.7310001 4279836958
0.84221804 0.42035025 1.7310001 4282402629
0.84525305 0.42035025 1.7310001 4282796119
0.84828806 0.42035025 1.7310001 4283388513
0.85132313 0.42035025 1.7310001 4283257958
0.84991604 0.41816473 1.7220001 4283455080
0.85293531 0.41816473 1.7220001 4283652462
0.85595453 0.41816473 1.7220001 4284375928
0.8589738 0.41816473 1.7220001 4284376951
0.8574878 0.41597921 1.7130001 4285232259
0.86049128 0.41597921 1.7130001 4285298329
0.86349475 0.41597921 1.7130001 4286022053
0.86649823 0.41597921 1.7130001 4286481311
0.86950165 0.41597921 1.7130001 4286349725
0.86843038 0.41403651 1.705 4286086551
0.86681992 0.41185099 1.6960001 4285954965
0.87440926 0.41403651 1.705 4285561756
0.87739867 0.41403651 1.705 4285561756
0.88038814 0.41403651 1.705 4285562004
0.87871456 0.41185099 1.6960001 4285562004
0.88168824 0.41185099 1.6960001 4285889172
0.88466185 0.41185099 1.6960001 4285494414
0.032696161 0.43439183 1.7760001 4290772992
0.035810079 0.43439183 1.7760001 4290772992
0.038924001 0.43439183 1.7760001 4290772992
0.042037919 0.43439183 1.7760001 4278910976
0.045151841 0.43439183 1.7760001 4278190080
0.048265759 0.43439183 1.7760001 4278190080
0.051379681 0.43439183 1.7760001 4278190080
0.054493599 0.43439183 1.7760001 4278190080
0.057283152 0.43194595 1.766 4278190080
0.06007183 0.42974463 1.7570001 4278190080
0.063475929 0.43194595 1.766 4278190080
0.066572316 0.43194595 1.766 4278190080
0.069668703 0.43194595 1.766 4278190080
0.072394259 0.42974463 1.7570001 4278190080
0.075474866 0.42974463 1.7570001 4278386688
0.078555472 0.42974463 1.7570001 4278517760
0.081636079 0.42974463 1.7570001 4278452224
0.084282734 0.42754331 1.748 4278648832
0.08734756 0.42754331 1.748 4278386688
0.089946873 0.42534199 1.7390001 4278190080
0.092995919 0.42534199 1.7390001 4278845440
0.096044973 0.42534199 1.7390001 4280686343
0.099094018 0.42534199 1.7390001 4281870111
0.10267169 0.42754331 1.748 4282001697
0.10573652 0.42754331 1.748 4280622886
0.10936154 0.42974463 1.7570001 4280294177
0.11301811 0.43194595 1.766 4279504896
0.1161145 0.43194595 1.766 4278715392
0.11921088 0.43194595 1.766 4278190080
0.12230727 0.43194595 1.766 4278190080
0.12540366 0.43194595 1.766 4278190080
0.12784518 0.42974463 1.7570001 4278190080
0.13159643 0.43194595 1.766 4278190080
0.13469282 0.43194595 1.766 4278190080
0.1377892 0.43194595 1.766 4278190080
0.14016761 0.42974463 1.7570001 4278190080
0.14324822 0.42974463 1.7570001 4278190080
0.14707837 0.43194595 1.766 4278190080
0.15017475 0.43194595 1.766 4278190080
0.15249003 0.42974463 1.7570001 4278190080
0.15477374 0.42754331 1.748 4278190080
0.1570259 0.42534199 1.7390001 4278190080
0.16007495 0.42534199 1.7390001 4278190080
0.16396822 0.42754331 1.748 4278190080
0.16703305 0.42754331 1.748 4278190080
0.17009787 0.42754331 1.748 4278190080
0.17405428 0.42974463 1.7570001 4278190080
0.17804223 0.43194595 1.766 4278190080
0.18113862 0.43194595 1.766 4278190080
0.18423501 0.43194595 1.766 4278190080
0.18637671 0.42974463 1.7570001 4278190080
0.18848684 0.42754331 1.748 4278190080
0.19056542 0.42534199 1.7390001 4278190088
0.19361447 0.42534199 1.7390001 4279044383
0.19575879 0.42338529 1.7310001 4279505152
0.19879381 0.42338529 1.7310001 4279702528
0.20182882 0.42338529 1.7310001 4280819712
0.20486385 0.42338529 1.7310001 4280951296
0.20789887 0.42338529 1.7310001 4281479198
0.21093389 0.42338529 1.7310001 4281610785
0.21495779 0.42534199 1.7390001 4282465592
0.21913511 0.42754331 1.748 4282794556
0.22334398 0.42974463 1.7570001 4282597936
0.22526476 0.42754331 1.748 4282597936
0.22832958 0.42754331 1.748 4282597684
0.23139441 0.42754331 1.748 4282597684
0.23445924 0.42754331 1.748 4282071871
0.23752406 0.42754331 1.748 4281874236
0.20141153 0.34902993 1.427 4281478697
0.20391354 0.34902993 1.427 4278190080
0.20554765 0.3475624 1.4210001 4278190080
0.20803913 0.3475624 1.4210001 4278190080
0.20964168 0.34609485 1.4150001 4278190091
0.21212265 0.34609485 1.4150001 4279639082
0.21460362 0.34609485 1.4150001 4280031239
0.21708459 0.34609485 1.4150001 4279899653
0.21956556 0.34609485 1.4150001 4280489535
0.2212619 0.34487191 1.4100001 4281410636
0.2237341 0.34487191 1.4100001 4281019179
0.22867849 0.34487191 1.4100001 4280821800
0.29882059 0.42754331 1.748 4290772992
0.30033109 0.42534199 1.7390001 4290772992
0.30495024 0.42754331 1.748 4290772992
0.30642918 0.42534199 1.7390001 4285882624
0.31107992 0.42754331 1.748 4279042048
0.31414473 0.42754331 1.748 4278190080
0.31412455 0.42338529 1.7310001 4278190336
0.2584466 0.32334799 1.322 4286142502
0.25977826 0.32212502 1.317 4285553726
0.26208737 0.32212502 1.317 4286408779
0.26439652 0.32212502 1.317 4285029988
0.26670566 0.32212502 1.317 4280292892
0.26901481 0.32212502 1.317 4278977799
0.27132395 0.32212502 1.317 4279372301
0.27363309 0.32212502 1.317 4278321177
0.29304072 0.33924633 1.3870001 4278190084
0.29547262 0.33924633 1.3870001 4278190080
0.29661578 0.33777878 1.381 4278190084
0.29903713 0.33777878 1.381 4278716437
0.30145848 0.33777878 1.381 4281866496
0.30387983 0.33777878 1.381 4285221929
0.3051922 0.33655584 1.376 4283971083
0.2968744 0.32481551 1.3280001 4283115776
0.29920283 0.32481551 1.3280001 4284041001
0.3001689 0.32334799 1.322 4290772992
0.30248681 0.32334799 1.322 4286346631
0.30480471 0.32334799 1.322 4282333001
0.30712262 0.32334799 1.322 4280687888
0.30944052 0.32334799 1.322 4281674783
0.37957737 0.38791972 1.5860001 4281742627
0.38067058 0.38620761 1.5790001 4281742627
0.38343909 0.38620761 1.5790001 4281677334
0.38620761 0.38620761 1.5790001 4281545748
0.38897613 0.38620761 1.5790001 4281872650
0.39174464 0.38620761 1.5790001 4281412099
0.39451316 0.38620761 1.5790001 4281475603
0.39728165 0.38620761 1.5790001 4281475603
0.40005016 0.38620761 1.5790001 4281608449
0.40281868 0.38620761 1.5790001 4281608449
0.40944016 0.38987646 1.5940001 4281871616
0.41223496 0.38987646 1.5940001 4282003201
0.41502976 0.38987646 1.5940001 4281544448
0.4178246 0.38987646 1.5940001 4281149440
0.4206194 0.38987646 1.5940001 4280360720
0.42341423 0.38987646 1.5940001 4280031754
0.42620903 0.38987646 1.5940001 4279899149
0.42900383 0.38987646 1.5940001 4279899149
0.43179867 0.38987646 1.5940001 4278190112
0.43459347 0.38987646 1.5940001 4278190106
0.43738827 0.38987646 1.5940001 4278190080
0.4401831 0.38987646 1.5940001 4278190080
0.44297791 0.38987646 1.5940001 4278190080
0.44577274 0.38987646 1.5940001 4278190080
0.45053741 0.3915886 1.6010001 4278190080
0.45136234 0.38987646 1.5940001 4278190080
0.45615157 0.3915886 1.6010001 4278190091
0.45895866 0.3915886 1.6010001 4278190091
0.46176577 0.3915886 1.6010001 4278190080
0.46457285 0.3915886 1.6010001 4278190080
0.46737993 0.3915886 1.6010001 4278190080
0.47018701 0.3915886 1.6010001 4278190080
0.47299409 0.3915886 1.6010001 4278190082
0.47817871 0.3935453 1.6090001 4278190082
0.48099983 0.3935453 1.6090001 4278190080
0.48592582 0.39525744 1.6160001 4278190080
0.48875919 0.39525744 1.6160001 4278190080
0.49159259 0.39525744 1.6160001 4278190080
0.49442598 0.39525744 1.6160001 4278190080
0.49725935 0.39525744 1.6160001 4278190080
0.50009274 0.39525744 1.6160001 4278190080
0.50292611 0.39525744 1.6160001 4278190080
0.50575954 0.39525744 1.6160001 4278190080
0.51111066 0.39721414 1.6240001 4278190081
0.5139581 0.39721414 1.6240001 4278452229
0.5142597 0.39525744 1.6160001 4278648840
0.51709306 0.39525744 1.6160001 4278716928
0.52250034 0.39721414 1.6240001 4278716928
0.52534777 0.39721414 1.6240001 4278716928
0.52819514 0.39721414 1.6240001 4279045637
0.53104258 0.39721414 1.6240001 4279045389
0.53652 0.39917088 1.6320001 4279045389
0.53938144 0.39917088 1.6320001 4278914821
0.54224288 0.39917088 1.6320001 4278980614
0.54510432 0.39917088 1.6320001 4279177479
0.54796576 0.39917088 1.6320001 4279703823
0.55082721 0.39917088 1.6320001 4280032032
0.55368865 0.39917088 1.6320001 4279900446
0.55893725 0.40088302 1.6390001 4279703319
0.56181097 0.40088302 1.6390001 4280032284
0.56468469 0.40088302 1.6390001 4279967032
0.56755841 0.40088302 1.6390001 4279572274
0.57043207 0.40088302 1.6390001 4279703319
0.57330579 0.40088302 1.6390001 4279900698
0.5761795 0.40088302 1.6390001 4279900196
0.58187962 0.40283972 1.6470001 4279308316
0.58476734 0.40283972 1.6470001 4279308561
0.58765507 0.40283972 1.6470001 4279440147
0.59054285 0.40283972 1.6470001 4279702819
0.59343058 0.40283972 1.6470001 4279505184
0.5963183 0.40283972 1.6470001 4278715670
0.60211658 0.40479645 1.6550001 4278518291
0.60501832 0.40479645 1.6550001 4278386714
0.60792011 0.40479645 1.6550001 4278190102
0.6108219 0.40479645 1.6550001 4278190102
0.61075699 0.40283972 1.6470001 4278190100
0.61662543 0.40479645 1.6550001 4278190091
0.61952716 0.40479645 1.6550001 4278190091
0.62242895 0.40479645 1.6550001 4278190087
0.62533069 0.40479645 1.6550001 4278190086
0.62823248 0.40479645 1.6550001 4278190091
0.63418502 0.40675315 1.6630001 4278190091
0.63710082 0.40675315 1.6630001 4278190080
0.64001662 0.40675315 1.6630001 4278190080
0.6460253 0.40870988 1.6710001 4278190087
0.64895511 0.40870988 1.6710001 4278190086
0.65188497 0.40870988 1.6710001 4278190087
0.65774459 0.40870988 1.6710001 4278190080
0.66717839 0.4109112 1.6800001 4278190094
0.67012399 0.4109112 1.6800001 4278190092
0.6730696 0.4109112 1.6800001 4278190080
0.6760152 0.4109112 1.6800001 4278190080
0.6789608 0.4109112 1.6800001 4278190083
0.6819064 0.4109112 1.6800001 4278190080
0.684852 0.4109112 1.6800001 4278190080
0.69107282 0.4128679 1.6880001 4281019963
0.69403243 0.4128679 1.6880001 4285954183
0.6969921 0.4128679 1.6880001 4286019976
0.69995171 0.4128679 1.6880001 4286347144
0.70291132 0.4128679 1.6880001 4286083973
0.70587093 0.4128679 1.6880001 4283320891
0.70547122 0.4109112 1.6800001 4280820501
0.70841682 0.4109112 1.6800001 4281217357
0.71136242 0.4109112 1.6800001 4281677908
0.71430802 0.4109112 1.6800001 4281874236
0.71725357 0.4109112 1.6800001 4282334787
0.72019917 0.4109112 1.6800001 4282334787
0.72314477 0.4109112 1.6800001 4282400580
0.72954798 0.4128679 1.6880001 4282006324
0.73250759 0.4128679 1.6880001 4281940531
0.7354672 0.4128679 1.6880001 4281611316
0.74586362 0.41702595 1.705 4281808695
0.74885303 0.41702595 1.705 4281808695
0.7518425 0.41702595 1.705 4281742902
0.75483191 0.41702595 1.705 4281808443
0.75782132 0.41702595 1.705 4281940029
0.75679475 0.41482463 1.6960001 4282202949
0.75976843 0.41482463 1.6960001 4282071619
0.7627421 0.41482463 1.6960001 4281939527
0.76571572 0.41482463 1.6960001 4282005320
0.76868939 0.41482463 1.6960001 4281612867
0.77166301 0.41482463 1.6960001 4281152316
0.77874738 0.41702595 1.705 4280559671
0.78953123 0.42118397 1.7220001 4279178018
0.7925505 0.42118397 1.7220001 4278784277
0.79556972 0.42118397 1.7220001 4278521362
0.79858899 0.42118397 1.7220001 4279508798
0.8016082 0.42118397 1.7220001 4281153622
0.79668397 0.41702595 1.705 4281546822
0.79967344 0.41702595 1.705 4282073166
0.80642903 0.41898265 1.7130001 4282400330
0.80943245 0.41898265 1.7130001 4282466123
0.81243593 0.41898265 1.7130001 4282467157
0.8154394 0.41898265 1.7130001 4282467157
0.81844282 0.41898265 1.7130001 4282795340
0.82576215 0.42118397 1.7220001 4282926926
0.82878137 0.42118397 1.7220001 4283123801
0.83180064 0.42118397 1.7220001 4283321180
0.83481985 0.42118397 1.7220001 4283125084
0.84221804 0.42338529 1.7310001 4283256670
0.84525305 0.42338529 1.7310001 4283322970
0.84828806 0.42338529 1.7310001 4283585885
0.84689683 0.42118397 1.7220001 4283389287
0.84991604 0.42118397 1.7220001 4283981424
0.85293531 0.42118397 1.7220001 4283915377
0.85595453 0.42118397 1.7220001 4284507771
0.85448438 0.41898265 1.7130001 4284574329
0.8574878 0.41898265 1.7130001 4285232259
0.85647267 0.41702595 1.705 4285429136
0.8680315 0.42118397 1.7220001 4286021273
0.86245149 0.41702595 1.705 4286283668
0.86087263 0.41482463 1.6960001 4286349461
0.85977155 0.4128679 1.6880001 4286283414
0.86273116 0.4128679 1.6880001 4286086035
0.86569077 0.4128679 1.6880001 4285562008
0.85990214 0.40870988 1.6710001 4285495958
0.86283201 0.40870988 1.6710001 4285691288
0.86161691 0.40675315 1.6630001 4285822874
0.88809842 0.4109112 1.6800001 4280567414
0.88627052 0.40870988 1.6710001 4282339725
0.8921302 0.40870988 1.6710001 4285759902
0.032696161 0.43750575 1.7760001 4290772992
0.035810079 0.43750575 1.7760001 4290772992
0.038924001 0.43750575 1.7760001 4290772992
0.041801218 0.43504232 1.766 4278779904
0.045151841 0.43750575 1.7760001 4278190080
0.048265759 0.43750575 1.7760001 4278190080
0.051090378 0.43504232 1.766 4278190080
0.054186765 0.43504232 1.766 4278190080
0.056699295 0.43060815 1.748 4278190080
0.059764121 0.43060815 1.748 4278190080
0.062828943 0.43060815 1.748 4278190080
0.065893769 0.43060815 1.748 4278190080
0.068958603 0.43060815 1.748 4278190080
0.071652599 0.42839104 1.7390001 4278190080
0.075088255 0.43060815 1.748 4278190080
0.07775069 0.42839104 1.7390001 4278190080
0.081217907 0.43060815 1.748 4278190080
0.083848782 0.42839104 1.7390001 4278321152
0.086897828 0.42839104 1.7390001 4279173120
0.089946873 0.42839104 1.7390001 4278976512
0.092568107 0.4264203 1.7310001 4278255616
0.095603131 0.4264203 1.7310001 4278386688
0.098638147 0.4264203 1.7310001 4278779904
0.10214306 0.42839104 1.7390001 4278714368
0.10519211 0.42839104 1.7390001 4278255616
0.10880134 0.43060815 1.748 4278190080
0.11186618 0.43060815 1.748 4278190080
0.114931 0.43060815 1.748 4278190080
0.11860336 0.43282524 1.7570001 4278190080
0.12106065 0.43060815 1.748 4278190080
0.12412548 0.43060815 1.748 4278190080
0.12719031 0.43060815 1.748 4278190080
0.12958448 0.42839104 1.7390001 4278190080
0.13263352 0.42839104 1.7390001 4278190080
0.13568258 0.42839104 1.7390001 4278190080
0.13809341 0.4264203 1.7310001 4278190080
0.14039466 0.42420322 1.7220001 4278190080
0.1434139 0.42420322 1.7220001 4278190080
0.14643314 0.42420322 1.7220001 4278190080
0.15023349 0.4264203 1.7310001 4278190080
0.15326852 0.4264203 1.7310001 4278190080
0.15549086 0.42420322 1.7220001 4278190080
0.1585101 0.42420322 1.7220001 4278190080
0.16237357 0.4264203 1.7310001 4278190080
0.16540858 0.4264203 1.7310001 4278190080
0.16844361 0.4264203 1.7310001 4278190080
0.17147863 0.4264203 1.7310001 4278190080
0.17532018 0.42839104 1.7390001 4278190080
0.17836922 0.42839104 1.7390001 4278190080
0.18235719 0.43060815 1.748 4278191872
0.18361871 0.4264203 1.7310001 4279047706
0.18665373 0.4264203 1.7310001 4279244828
0.18870249 0.42420322 1.7220001 4280032032
0.19172174 0.42420322 1.7220001 4280229667
0.19474098 0.42420322 1.7220001 4280884763
0.19776022 0.42420322 1.7220001 4281345314
0.20077945 0.42420322 1.7220001 4282069543
0.2037987 0.42420322 1.7220001 4282990389
0.20789887 0.4264203 1.7310001 4282794556
0.20983718 0.42420322 1.7220001 4282926143
0.2139689 0.4264203 1.7310001 4283189581
0.21800683 0.42839104 1.7390001 4283057994
0.22219993 0.43060815 1.748 4283056697
0.22526476 0.43060815 1.748 4282925111
0.22715397 0.42839104 1.7390001 4282794306
0.23020302 0.42839104 1.7390001 4282662977
0.23325206 0.42839104 1.7390001 4282005822
0.23630111 0.42839104 1.7390001 4281545271
0.20141153 0.35153192 1.427 4281543527
0.20391354 0.35153192 1.427 4278386743
0.20554765 0.35005388 1.4210001 4278255616
0.20803913 0.35005388 1.4210001 4278190080
0.20964168 0.3485758 1.4150001 4278190080
0.21212265 0.3485758 1.4150001 4279439641
0.21460362 0.3485758 1.4150001 4279899723
0.21708459 0.3485758 1.4150001 4279373379
0.21956556 0.3485758 1.4150001 4278584838
0.22204651 0.3485758 1.4150001 4280624421
0.29739514 0.42420322 1.7220001 4290772992
0.30338013 0.42839104 1.7390001 4290772992
0.30343363 0.42420322 1.7220001 4283448832
0.30645287 0.42420322 1.7220001 4278779904
0.30947208 0.42420322 1.7220001 4278190080
0.25746912 0.32443416 1.317 4286339601
0.25977826 0.32443416 1.317 4285619517
0.26109236 0.32320246 1.312 4286343240
0.26339275 0.32320246 1.312 4284505440
0.26569313 0.32320246 1.312 4278190081
0.26697218 0.32197073 1.307 4278190080
0.27029386 0.32320246 1.312 4279111182
0.27155539 0.32197073 1.307 4278455569
0.29409713 0.34290993 1.3920001 4278190085
0.29547262 0.3416782 1.3870001 4278190080
0.29790449 0.3416782 1.3870001 4278190080
0.29903713 0.34020016 1.381 4278190080
0.30145848 0.34020016 1.381 4281472768
0.30387983 0.34020016 1.381 4284499239
0.30630121 0.34020016 1.381 4283709192
0.2968744 0.32714394 1.3280001 4282853888
0.29920283 0.32714394 1.3280001 4283320360
0.30153126 0.32714394 1.3280001 4286544217
0.30385968 0.32714394 1.3280001 4286281366
0.30480471 0.32566589 1.322 4281939027
0.30712262 0.32566589 1.322 4280358657
0.30944052 0.32566589 1.322 4281740310
0.37957737 0.39070052 1.5860001 4281742375
0.38067058 0.38897613 1.5790001 4281873704
0.38343909 0.38897613 1.5790001 4281871908
0.38620761 0.38897613 1.5790001 4282003494
0.38897613 0.38897613 1.5790001 4282135332
0.39174464 0.38897613 1.5790001 4281477402
0.39451316 0.38897613 1.5790001 4281541659
0.39728165 0.38897613 1.5790001 4281673502
0.40005016 0.38897613 1.5790001 4281804838
0.40460446 0.39070052 1.5860001 4281672996
0.40944016 0.39267126 1.5940001 4281607203
0.41223496 0.39267126 1.5940001 4281146652
0.41294682 0.39070052 1.5860001 4280423946
0.41572762 0.39070052 1.5860001 4280226567
0.4206194 0.39267126 1.5940001 4279439641
0.42341423 0.39267126 1.5940001 4278781967
0.42620903 0.39267126 1.5940001 4278321666
0.42900383 0.39267126 1.5940001 4278190080
0.43179867 0.39267126 1.5940001 4278190080
0.43459347 0.39267126 1.5940001 4278190080
0.43738827 0.39267126 1.5940001 4278190080
0.4401831 0.39267126 1.5940001 4278190080
0.44492322 0.39439568 1.6010001 4278190080
0.44773033 0.39439568 1.6010001 4278190080
0.45053741 0.39439568 1.6010001 4278190080
0.45334449 0.39439568 1.6010001 4278190080
0.45615157 0.39439568 1.6010001 4278190080
0.45895866 0.39439568 1.6010001 4278190080
0.46176577 0.39439568 1.6010001 4278190080
0.46457285 0.39439568 1.6010001 4278190080
0.46533641 0.39267126 1.5940001 4278190080
0.47018701 0.39439568 1.6010001 4278190080
0.47299409 0.39439568 1.6010001 4278190080
0.47817871 0.39636642 1.6090001 4278190080
0.48099983 0.39636642 1.6090001 4278190080
0.48382095 0.39636642 1.6090001 4278190080
0.48664203 0.39636642 1.6090001 4278190080
0.49159259 0.39809081 1.6160001 4278190080
0.49442598 0.39809081 1.6160001 4278190080
0.49725935 0.39809081 1.6160001 4278190080
0.50009274 0.39809081 1.6160001 4278190080
0.50292611 0.39809081 1.6160001 4278190080
0.50575954 0.39809081 1.6160001 4278714368
0.5085929 0.39809081 1.6160001 4278845440
0.51142627 0.39809081 1.6160001 4278648842
0.5142597 0.39809081 1.6160001 4279174675
0.51709306 0.39809081 1.6160001 4279440395
0.52250034 0.40006158 1.6240001 4279440395
0.52534777 0.40006158 1.6240001 4278719238
0.52819514 0.40006158 1.6240001 4278916617
0.53104258 0.40006158 1.6240001 4278981659
0.53389001 0.40006158 1.6240001 4278915866
0.53938144 0.40203232 1.6320001 4278916369
0.54224288 0.40203232 1.6320001 4278982163
0.54510432 0.40203232 1.6320001 4279505940
0.54796576 0.40203232 1.6320001 4279637526
0.55082721 0.40203232 1.6320001 4279571483
0.55368865 0.40203232 1.6320001 4279900192
0.55893725 0.40375671 1.6390001 4280032284
0.56181097 0.40375671 1.6390001 4280098077
0.56468469 0.40375671 1.6390001 4280163372
0.56755841 0.40375671 1.6390001 4279768615
0.57043207 0.40375671 1.6390001 4279703319
0.57330579 0.40375671 1.6390001 4279769112
0.5761795 0.40375671 1.6390001 4278717980
0.58187962 0.40572748 1.6470001 4278717980
0.58476734 0.40572748 1.6470001 4279110932
0.58765507 0.40572748 1.6470001 4279045139
0.59054285 0.40572748 1.6470001 4278715670
0.59631306 0.40769821 1.6550001 4278190093
0.59921479 0.40769821 1.6550001 4278190080
0.60211658 0.40769821 1.6550001 4278190080
0.60501832 0.40769821 1.6550001 4278321164
0.60792011 0.40769821 1.6550001 4278255627
0.6108219 0.40769821 1.6550001 4278255627
0.61372364 0.40769821 1.6550001 4278190088
0.61662543 0.40769821 1.6550001 4278190086
0.61952716 0.40769821 1.6550001 4278190085
0.62242895 0.40769821 1.6550001 4278190093
0.62533069 0.40769821 1.6550001 4278190093
0.62823248 0.40769821 1.6550001 4278190085
0.63418502 0.40966895 1.6630001 4278190085
0.63710082 0.40966895 1.6630001 4278190080
0.64001662 0.40966895 1.6630001 4278190080
0.6460253 0.41163972 1.6710001 4278190085
0.64895511 0.41163972 1.6710001 4278190084
0.65188497 0.41163972 1.6710001 4278190080
0.66128719 0.4138568 1.6800001 4278190080
0.66067439 0.41163972 1.6710001 4278190080
0.67012399 0.4138568 1.6800001 4278190080
0.6730696 0.4138568 1.6800001 4278190080
0.67239368 0.41163972 1.6710001 4278190080
0.6819064 0.4138568 1.6800001 4278714378
0.684852 0.4138568 1.6800001 4278190081
0.68779761 0.4138568 1.6800001 4281547070
0.69403243 0.41582754 1.6880001 4290772992
0.6969921 0.41582754 1.6880001 4290772992
0.69995171 0.41582754 1.6880001 4290772992
0.70291132 0.41582754 1.6880001 4286347133
0.70252562 0.4138568 1.6800001 4283518045
0.70547122 0.4138568 1.6800001 4281873221
0.70462173 0.41163972 1.6710001 4282071367
0.70755154 0.41163972 1.6710001 4282334539
0.70707989 0.40966895 1.6630001 4282268994
0.70999569 0.40966895 1.6630001 4282466373
0.71634096 0.41163972 1.6710001 4281941826
0.72609037 0.4138568 1.6800001 4281941830
0.72903597 0.4138568 1.6800001 4281415230
0.73198158 0.4138568 1.6800001 4281218109
0.73492718 0.4138568 1.6800001 4280954681
0.74138647 0.41582754 1.6880001 4280955183
0.74434608 0.41582754 1.6880001 4281086769
0.74730575 0.41582754 1.6880001 4281546818
0.75382113 0.41779828 1.6960001 4281875783
0.75322497 0.41582754 1.6880001 4281678910
0.75618464 0.41582754 1.6880001 4281810239
0.75914425 0.41582754 1.6880001 4282005574
0.76210386 0.41582754 1.6880001 4282071367
0.76506346 0.41582754 1.6880001 4282007623
0.77166301 0.41779828 1.6960001 4281612865
0.77463669 0.41779828 1.6960001 4280954429
0.77761036 0.41779828 1.6960001 4279572776
0.78840822 0.42198613 1.7130001 4279701273
0.7914117 0.42198613 1.7130001 4279569686
0.79070508 0.42001539 1.705 4278918177
0.78950495 0.41779828 1.6960001 4281089603
0.79247862 0.41779828 1.6960001 4281548869
0.79545224 0.41779828 1.6960001 4281746248
0.80266285 0.42001539 1.705 4282139211
0.80565226 0.42001539 1.705 4282270540
0.80864173 0.42001539 1.705 4282401364
0.81163114 0.42001539 1.705 4282664535
0.81462055 0.42001539 1.705 4282468172
0.81761003 0.42001539 1.705 4282731343
0.82444978 0.42198613 1.7130001 4282862419
0.81924146 0.41779828 1.6960001 4283191127
0.83481985 0.42420322 1.7220001 4283256670
0.83783907 0.42420322 1.7220001 4283256670
0.84085834 0.42420322 1.7220001 4283126368
0.84387755 0.42420322 1.7220001 4283652712
0.84689683 0.42420322 1.7220001 4283456103
0.845474 0.42198613 1.7130001 4283784811
0.84847742 0.42198613 1.7130001 4283784815
0.8514809 0.42198613 1.7130001 4284508282
0.82954317 0.40966895 1.6630001 4284640122
0.84391439 0.4138568 1.6800001 4284902526
0.85089266 0.41582754 1.6880001 4285297284
0.84525305 0.41163972 1.6710001 4285559425
0.84818286 0.41163972 1.6710001 4285888390
0.84703797 0.40966895 1.6630001 4285823628
0.85404253 0.41163972 1.6710001 4285757835
0.85286957 0.40966895 1.6630001 4285954717
0.85578531 0.40966895 1.6630001 4285954717
0.85870111 0.40966895 1.6630001 4285889174
0.86161691 0.40966895 1.6630001 4285889174
0.85621488 0.40572748 1.6470001 4285036441
0.85910267 0.40572748 1.6470001 4282667893
0.86199039 0.40572748 1.6470001 4280827740
0.88041091 0.41163972 1.6710001 4278199117
0.88334072 0.41163972 1.6710001 4278466658
0.88627052 0.41163972 1.6710001 4280107866
0.88920039 0.41163972 1.6710001 4284318618
0.8921302 0.41163972 1.6710001 4285628575
0.89506 0.41163972 1.6710001 4285431453
0.89798981 0.41163972 1.6710001 4285562015
0.035810079 0.44061968 1.7760001 4290772992
0.038924001 0.44061968 1.7760001 4290772992
0.041801218 0.43813872 1.766 4279369728
0.044897605 0.43813872 1.766 4278190080
0.047993992 0.43813872 1.766 4278190080
0.050569639 0.43367296 1.748 4278190080
0.053910617 0.43590584 1.7570001 4278190080
0.056407362 0.43144011 1.7390001 4278190080
0.059456408 0.43144011 1.7390001 4278190080
0.062505454 0.43144011 1.7390001 4278190080
0.0655545 0.43144011 1.7390001 4278190080
0.068603553 0.43144011 1.7390001 4278190080
0.07132297 0.42945534 1.7310001 4278190080
0.074357986 0.42945534 1.7310001 4278190080
0.07739301 0.42945534 1.7310001 4278190080
0.080428027 0.42945534 1.7310001 4278386688
0.083848782 0.43144011 1.7390001 4278583296
0.086498067 0.42945534 1.7310001 4279173120
0.089533091 0.42945534 1.7310001 4279173120
0.092568107 0.42945534 1.7310001 4278976512
0.095603131 0.42945534 1.7310001 4278779904
0.098638147 0.42945534 1.7310001 4278190080
0.10167317 0.42945534 1.7310001 4278190080
0.10470819 0.42945534 1.7310001 4278190080
0.10824116 0.43144011 1.7390001 4278190080
0.1112902 0.43144011 1.7390001 4278190080
0.11433925 0.43144011 1.7390001 4278190080
0.11738829 0.43144011 1.7390001 4278190080
0.12043734 0.43144011 1.7390001 4278190080
0.12291831 0.42945534 1.7310001 4278190080
0.12595333 0.42945534 1.7310001 4278190080
0.1283177 0.42722246 1.7220001 4278190080
0.13133694 0.42722246 1.7220001 4278190080
0.13435619 0.42722246 1.7220001 4278190080
0.13737541 0.42722246 1.7220001 4278190080
0.13966089 0.42498958 1.7130001 4278190082
0.14266434 0.42498958 1.7130001 4278257170
0.14566781 0.42498958 1.7130001 4278978048
0.14945237 0.42722246 1.7220001 4279964942
0.15247162 0.42722246 1.7220001 4280163075
0.15549086 0.42722246 1.7220001 4280492040
0.15768164 0.42498958 1.7130001 4280689935
0.16068511 0.42498958 1.7130001 4281150486
0.16454858 0.42722246 1.7220001 4282991154
0.16756782 0.42722246 1.7220001 4283122997
0.17058706 0.42722246 1.7220001 4283386434
0.17360631 0.42722246 1.7220001 4283715143
0.17662553 0.42722246 1.7220001 4283519047
0.18058369 0.42945534 1.7310001 4283519047
0.18266402 0.42722246 1.7220001 4283321936
0.18568327 0.42722246 1.7220001 4283255887
0.18870249 0.42722246 1.7220001 4283123535
0.19172174 0.42722246 1.7220001 4282991949
0.19474098 0.42722246 1.7220001 4282794823
0.19776022 0.42722246 1.7220001 4282860872
0.20077945 0.42722246 1.7220001 4283058244
0.2037987 0.42722246 1.7220001 4283321673
0.20681794 0.42722246 1.7220001 4282993192
0.20983718 0.42722246 1.7220001 4281150988
0.21285641 0.42722246 1.7220001 4280493376
0.21587566 0.42722246 1.7220001 4280427583
0.22003895 0.42945534 1.7310001 4280492835
0.22307397 0.42945534 1.7310001 4280690214
0.22610898 0.42945534 1.7310001 4281017923
0.22914401 0.42945534 1.7310001 4282070868
0.23217903 0.42945534 1.7310001 4281611320
0.20141153 0.35403395 1.427 4283190909
0.20391354 0.35403395 1.427 4278190115
0.20554765 0.35254535 1.4210001 4278190080
0.20803913 0.35254535 1.4210001 4278190080
0.20964168 0.35105678 1.4150001 4278190080
0.21212265 0.35105678 1.4150001 4280756775
0.21460362 0.35105678 1.4150001 4285097339
0.21708459 0.35105678 1.4150001 4284570995
0.21956556 0.35105678 1.4150001 4281807105
0.29739514 0.42722246 1.7220001 4285022740
0.30198449 0.42945534 1.7310001 4284430602
0.30343363 0.42722246 1.7220001 4283579648
0.30645287 0.42722246 1.7220001 4280553472
0.30947208 0.42722246 1.7220001 4280553992
0.2561287 0.3279838 1.322 4285418529
0.2584466 0.3279838 1.322 4286142252
0.25977826 0.3267433 1.317 4285488181
0.26109236 0.32550281 1.312 4286080318
0.26439652 0.3267433 1.317 4284635997
0.26569313 0.32550281 1.312 4278190080
0.26697218 0.32426235 1.307 4278190081
0.26926377 0.32426235 1.307 4278979090
0.27155539 0.32426235 1.307 4278781967
0.29409713 0.34535056 1.3920001 4278255623
0.29653776 0.34535056 1.3920001 4278190080
0.29790449 0.34411007 1.3870001 4278190080
0.30033636 0.34411007 1.3870001 4278190080
0.30276823 0.34411007 1.3870001 4281274628
0.3052001 0.34411007 1.3870001 4284498485
0.30763197 0.34411007 1.3870001 4283709192
0.29920283 0.32947236 1.3280001 4283580965
0.30153126 0.32947236 1.3280001 4290772992
0.30385968 0.32947236 1.3280001 4286543754
0.30480471 0.3279838 1.322 4282135879
0.30712262 0.3279838 1.322 4280293376
0.30944052 0.3279838 1.322 4281477894
0.38149202 0.39546609 1.5940001 4279832852
0.38235816 0.39348131 1.5860001 4279701523
0.38343909 0.39174464 1.5790001 4279240972
0.38620761 0.39174464 1.5790001 4278714627
0.38897613 0.39174464 1.5790001 4278780928
0.39174464 0.39174464 1.5790001 4278912256
0.39451316 0.39174464 1.5790001 4278190084
0.39728165 0.39174464 1.5790001 4278190085
0.40005016 0.39174464 1.5790001 4278190089
0.40281868 0.39174464 1.5790001 4278190087
0.40944016 0.39546609 1.5940001 4278190095
0.41016603 0.39348131 1.5860001 4278190094
0.41294682 0.39348131 1.5860001 4278190080
0.41572762 0.39348131 1.5860001 4278190080
0.4206194 0.39546609 1.5940001 4278190080
0.42341423 0.39546609 1.5940001 4278190080
0.42620903 0.39546609 1.5940001 4278190080
0.42900383 0.39546609 1.5940001 4278190080
0.43179867 0.39546609 1.5940001 4278190080
0.43459347 0.39546609 1.5940001 4278190080
0.43738827 0.39546609 1.5940001 4278190080
0.44211614 0.39720276 1.6010001 4278190080
0.44492322 0.39720276 1.6010001 4278190080
0.44773033 0.39720276 1.6010001 4278190080
0.45053741 0.39720276 1.6010001 4278190080
0.45334449 0.39720276 1.6010001 4278190080
0.45615157 0.39720276 1.6010001 4278190080
0.45895866 0.39720276 1.6010001 4278190080
0.46176577 0.39720276 1.6010001 4278190080
0.46457285 0.39720276 1.6010001 4278190084
0.46533641 0.39546609 1.5940001 4278190080
0.46813124 0.39546609 1.5940001 4278190084
0.47092605 0.39546609 1.5940001 4278190085
0.4758012 0.39720276 1.6010001 4278190085
0.47860828 0.39720276 1.6010001 4278387459
0.48382095 0.39918754 1.6090001 4278650631
0.48664203 0.39918754 1.6090001 4278650631
0.48946315 0.39918754 1.6090001 4278519045
0.49442598 0.40092421 1.6160001 4278651136
0.49725935 0.40092421 1.6160001 4278716928
0.4979265 0.39918754 1.6090001 4278782217
0.50074762 0.39918754 1.6090001 4278716424
0.50575954 0.40092421 1.6160001 4279702275
0.5085929 0.40092421 1.6160001 4280557583
0.51142627 0.40092421 1.6160001 4280294177
0.51203209 0.39918754 1.6090001 4280096542
0.51485318 0.39918754 1.6090001 4279770120
0.51992643 0.40092421 1.6160001 4279572485
0.52275985 0.40092421 1.6160001 4279375372
0.52559322 0.40092421 1.6160001 4279572494
0.52842659 0.40092421 1.6160001 4279310119
0.53389001 0.40290898 1.6240001 4279047204
0.53673738 0.40290898 1.6240001 4279440147
0.53958482 0.40290898 1.6240001 4279308561
0.54510432 0.40489376 1.6320001 4279308561
0.54796576 0.40489376 1.6320001 4278979596
0.55082721 0.40489376 1.6320001 4278847761
0.55368865 0.40489376 1.6320001 4278847761
0.55893725 0.40663043 1.6390001 4278386962
0.55941153 0.40489376 1.6320001 4278386962
0.56227297 0.40489376 1.6320001 4278190102
0.56755841 0.40663043 1.6390001 4278190099
0.57043207 0.40663043 1.6390001 4278190092
0.57330579 0.40663043 1.6390001 4278190094
0.5761795 0.40663043 1.6390001 4278190092
0.58187962 0.4086152 1.6470001 4278190092
0.58476734 0.4086152 1.6470001 4278190084
0.58765507 0.4086152 1.6470001 4278190083
0.59054285 0.4086152 1.6470001 4278190091
0.59631306 0.41059998 1.6550001 4278190091
0.59921479 0.41059998 1.6550001 4278190080
0.60211658 0.41059998 1.6550001 4278190080
0.60501832 0.41059998 1.6550001 4278190091
0.60792011 0.41059998 1.6550001 4278190089
0.6108219 0.41059998 1.6550001 4278190087
0.61372364 0.41059998 1.6550001 4278190087
0.61662543 0.41059998 1.6550001 4278190086
0.61952716 0.41059998 1.6550001 4278190085
0.62242895 0.41059998 1.6550001 4278190093
0.62533069 0.41059998 1.6550001 4278190092
0.62823248 0.41059998 1.6550001 4278190092
0.63418502 0.41258475 1.6630001 4278190092
0.634036 0.41059998 1.6550001 4278190085
0.64001662 0.41258475 1.6630001 4278190087
0.6460253 0.41456953 1.6710001 4278190098
0.64895511 0.41456953 1.6710001 4278321176
0.65188497 0.41456953 1.6710001 4279175178
0.65481478 0.41456953 1.6710001 4279438350
0.65774459 0.41456953 1.6710001 4280031239
0.66067439 0.41456953 1.6710001 4280162825
0.6636042 0.41456953 1.6710001 4280689935
0.66653407 0.41456953 1.6710001 4280755728
0.66946387 0.41456953 1.6710001 4281018395
0.67239368 0.41456953 1.6710001 4281544740
0.67532349 0.41456953 1.6710001 4281873202
0.67825335 0.41456953 1.6710001 4281938996
0.68779761 0.41680241 1.6800001 4281939779
0.69074321 0.41680241 1.6800001 4281679162
0.69368881 0.41680241 1.6800001 4281481527
0.69663441 0.41680241 1.6800001 4282266665
0.69583225 0.41456953 1.6710001 4282529838
0.69876206 0.41456953 1.6710001 4282594629
0.70169187 0.41456953 1.6710001 4282528836
0.70124829 0.41258475 1.6630001 4282005822
0.70416409 0.41258475 1.6630001 4282005822
0.70707989 0.41258475 1.6630001 4281940029
0.70999569 0.41258475 1.6630001 4281940029
0.71634096 0.41456953 1.6710001 4281678660
0.72609037 0.41680241 1.6800001 4281679183
0.72903597 0.41680241 1.6800001 4280363323
0.73198158 0.41680241 1.6800001 4279508798
0.73492718 0.41680241 1.6800001 4278190625
0.73787278 0.41680241 1.6800001 4278781967
0.74434608 0.41878718 1.6880001 4279308312
0.74730575 0.41878718 1.6880001 4280098372
0.75026536 0.41878718 1.6880001 4281611611
0.75322497 0.41878718 1.6880001 4281678910
0.75260079 0.41680241 1.6800001 4281810239
0.75554639 0.41680241 1.6800001 4282071367
0.76210386 0.41878718 1.6880001 4282005574
0.76143759 0.41680241 1.6800001 4281941830
0.76802313 0.41878718 1.6880001 4281612865
0.77098274 0.41878718 1.6880001 4281085767
0.77761036 0.42077196 1.6960001 4281217353
0.78472626 0.42300481 1.705 4280757306
0.78771567 0.42300481 1.705 4281152064
0.79070508 0.42300481 1.705 4280692806
0.78950495 0.42077196 1.6960001 4281613908
0.78874052 0.41878718 1.6880001 4281875783
0.79170012 0.41878718 1.6880001 4281941576
0.80266285 0.42300481 1.705 4282531916
0.7976194 0.41878718 1.6880001 4282663502
0.8043732 0.42077196 1.6960001 4282662996
0.80734688 0.42077196 1.6960001 4282662996
0.81032056 0.42077196 1.6960001 4282468172
0.81329417 0.42077196 1.6960001 4282599758
0.81626785 0.42077196 1.6960001 4283124051
0.81537712 0.41878718 1.6880001 4283189844
0.82657832 0.42300481 1.705 4283387479
0.82956773 0.42300481 1.705 4283453272
0.83646363 0.42498958 1.7130001 4283322970
0.83946705 0.42498958 1.7130001 4283980643
0.84247053 0.42498958 1.7130001 4283652962
0.845474 0.42498958 1.7130001 4283850340
0.84005708 0.42077196 1.6960001 4283850608
0.82662743 0.41258475 1.6630001 4284639868
0.82954317 0.41258475 1.6630001 4284508271
0.82845438 0.41059998 1.6550001 4282271309
0.83537477 0.41258475 1.6630001 4280693562
