# .PCD v0.7 - Point Cloud Data file format
VERSION 0.7
FIELDS x y z rgba
SIZE 4 4 4 4
TYPE F F F U
COUNT 1 1 1 1
WIDTH 1128
HEIGHT 1
VIEWPOINT 0 0 0 1 0 0 0
POINTS 1128
DATA ascii
0.36458024 -0.38728765 1.439 4290772992
0.36863396 -0.38890249 1.4450001 4290772992
0.37116751 -0.38890249 1.4450001 4290772992
0.37551141 -0.39078644 1.452 4290772992
0.37623465 -0.38890249 1.4450001 4290772992
0.37876821 -0.38890249 1.4450001 4290772992
0.38314891 -0.39078644 1.452 4290772992
0.38383535 -0.38890249 1.4450001 4290772992
0.3863689 -0.38890249 1.4450001 4290772992
0.38890249 -0.38890249 1.4450001 4290772992
0.39143604 -0.38890249 1.4450001 4290772992
0.39233375 -0.38728765 1.439 4290772992
0.39485681 -0.38728765 1.439 4290772992
0.39572296 -0.38567284 1.4330001 4290772992
0.39656806 -0.38405803 1.427 4290772992
0.39907005 -0.38405803 1.427 4290772992
0.40157208 -0.38405803 1.427 4290772992
0.4023751 -0.38244319 1.4210001 4290772992
0.40486658 -0.38244319 1.4210001 4290772992
0.40735808 -0.38244319 1.4210001 4290772992
0.40984955 -0.38244319 1.4210001 4290772992
0.41059998 -0.38082838 1.4150001 4290772992
0.41308096 -0.38082838 1.4150001 4290772992
0.41409349 -0.37948269 1.4100001 4290772992
0.41656569 -0.37948269 1.4100001 4290772992
0.41725475 -0.37786788 1.404 4290772992
0.41971645 -0.37786788 1.404 4290772992
0.42037395 -0.37625307 1.3980001 4290772992
0.4228251 -0.37625307 1.3980001 4290772992
0.42345104 -0.37463823 1.3920001 4290772992
0.42589167 -0.37463823 1.3920001 4290772992
0.42833233 -0.37463823 1.3920001 4290772992
0.43077296 -0.37463823 1.3920001 4290772992
0.43321359 -0.37463823 1.3920001 4286545280
0.43408939 -0.37329257 1.3870001 4286545026
0.43809488 -0.37463823 1.3920001 4286479233
0.43895313 -0.37329257 1.3870001 4286281849
0.441385 -0.37329257 1.3870001 4285953140
0.44541681 -0.37463823 1.3920001 4286018680
0.44624874 -0.37329257 1.3870001 4285952886
0.44868064 -0.37329257 1.3870001 4285952888
0.45111251 -0.37329257 1.3870001 4285821046
0.45354438 -0.37329257 1.3870001 4285821300
0.45597625 -0.37329257 1.3870001 4285887093
0.45840812 -0.37329257 1.3870001 4286083443
0.45884645 -0.37167773 1.381 4286017650
0.4612678 -0.37167773 1.381 4286017650
0.46368915 -0.37167773 1.381 4286083443
0.46611053 -0.37167773 1.381 4285887093
0.46853188 -0.37167773 1.381 4285821300
0.46924812 -0.37033206 1.376 4285821048
0.4716607 -0.37033206 1.376 4285821048
0.47407329 -0.37033206 1.376 4285821048
0.47648588 -0.37033206 1.376 4285886841
0.47681022 -0.36871722 1.3700001 4285822070
0.47921228 -0.36871722 1.3700001 4285822070
0.47985664 -0.36737156 1.365 4285690484
0.48401642 -0.36871722 1.3700001 4285624691
0.48464325 -0.36737156 1.365 4285755507
0.48489574 -0.36575672 1.3590001 4285755507
0.48727852 -0.36575672 1.3590001 4285624689
0.48785973 -0.36441106 1.3540001 4285690482
0.49023375 -0.36441106 1.3540001 4285690484
0.49260777 -0.36441106 1.3540001 4285690484
0.49498177 -0.36441106 1.3540001 4285690482
0.49551916 -0.36306536 1.3490001 4285690482
0.49788442 -0.36306536 1.3490001 4285624689
0.49802467 -0.36145055 1.3430001 4285624689
0.50037944 -0.36145055 1.3430001 4285624691
0.50273412 -0.36145055 1.3430001 4285558642
0.50508887 -0.36145055 1.3430001 4285362546
0.50744361 -0.36145055 1.3430001 4285428339
0.50790036 -0.36010486 1.3380001 4285362544
0.51024628 -0.36010486 1.3380001 4285362544
0.51259226 -0.36010486 1.3380001 4285361519
0.51686251 -0.36145055 1.3430001 4285295726
0.51728415 -0.36010486 1.3380001 4285426542
0.51963013 -0.36010486 1.3380001 4285426542
0.52197611 -0.36010486 1.3380001 4285229931
0.52432203 -0.36010486 1.3380001 4285164138
0.52666801 -0.36010486 1.3380001 4285229931
0.52901399 -0.36010486 1.3380001 4285164138
0.5293743 -0.35875916 1.3330001 4284968042
0.52732378 -0.35579866 1.322 4285099628
0.52964169 -0.35579866 1.322 4285165421
0.53195959 -0.35579866 1.322 4285033835
0.5342775 -0.35579866 1.322 4284770664
0.53456593 -0.354453 1.317 4284770664
0.53687507 -0.354453 1.317 4284639329
0.53918421 -0.354453 1.317 4284705122
0.54149336 -0.354453 1.317 4284639077
0.54173791 -0.3531073 1.312 4284704870
0.54196495 -0.35176161 1.307 4284704872
0.54633868 -0.3531073 1.312 4284639079
0.54654819 -0.35176161 1.307 4284704870
0.54674017 -0.35041595 1.302 4284573284
0.54902303 -0.35041595 1.302 4284507237
0.55130583 -0.35041595 1.302 4284507237
0.55358869 -0.35041595 1.302 4284178528
0.55587155 -0.35041595 1.302 4284244321
0.5581544 -0.35041595 1.302 4284440417
0.56510723 -0.34907025 1.2970001 4284045139
0.56738132 -0.34907025 1.2970001 4284045139
0.56965536 -0.34907025 1.2970001 4284045139
0.57192945 -0.34907025 1.2970001 4284110932
0.57420349 -0.34907025 1.2970001 4284111446
0.14209627 -0.44679755 1.6710001 4290772992
0.14502609 -0.44679755 1.6710001 4290772992
0.14795591 -0.44679755 1.6710001 4290772992
0.15016335 -0.44465849 1.6630001 4290772992
0.15307915 -0.44465849 1.6630001 4290772992
0.15599494 -0.44465849 1.6630001 4290772992
0.15891074 -0.44465849 1.6630001 4290772992
0.16104805 -0.44251943 1.6550001 4290772992
0.16394982 -0.44251943 1.6550001 4290772992
0.16765812 -0.44465849 1.6630001 4286080311
0.17139447 -0.44679755 1.6710001 4282260279
0.17432429 -0.44679755 1.6710001 4278910981
0.17725411 -0.44679755 1.6710001 4278190080
0.18018393 -0.44679755 1.6710001 4279181072
0.1870456 -0.449204 1.6800001 4280162335
0.18999121 -0.449204 1.6800001 4280293153
0.19293679 -0.449204 1.6800001 4280161824
0.19588239 -0.449204 1.6800001 4279703319
0.198828 -0.449204 1.6800001 4279440147
0.2017736 -0.449204 1.6800001 4278979090
0.20569405 -0.45134306 1.6880001 4278716174
0.2076648 -0.449204 1.6800001 4278190336
0.2106104 -0.449204 1.6800001 4278190080
0.3043471 -0.40535313 1.516 4290772992
0.30700517 -0.40535313 1.516 4290772992
0.30966321 -0.40535313 1.516 4290772992
0.31087914 -0.40348145 1.5090001 4290772992
0.30936953 -0.39813378 1.4890001 4290772992
0.31198025 -0.39813378 1.4890001 4290772992
0.31459096 -0.39813378 1.4890001 4290772992
0.31592348 -0.39652947 1.483 4290772992
0.31852368 -0.39652947 1.483 4290772992
0.31982467 -0.39492518 1.4770001 4290772992
0.32241434 -0.39492518 1.4770001 4290772992
0.32500401 -0.39492518 1.4770001 4290772992
0.32759368 -0.39492518 1.4770001 4290772992
0.33018336 -0.39492518 1.4770001 4290772992
0.33119589 -0.3930535 1.47 4290772992
0.33377329 -0.3930535 1.47 4290772992
0.33635071 -0.3930535 1.47 4290772992
0.33754471 -0.39144918 1.4640001 4290772992
0.34011158 -0.39144918 1.4640001 4290772992
0.34267849 -0.39144918 1.4640001 4290772992
0.34524536 -0.39144918 1.4640001 4290772992
0.34781224 -0.39144918 1.4640001 4290772992
0.35037911 -0.39144918 1.4640001 4290772992
0.35294598 -0.39144918 1.4640001 4290772992
0.35551289 -0.39144918 1.4640001 4290772992
0.35807976 -0.39144918 1.4640001 4290772992
0.36064664 -0.39144918 1.4640001 4290772992
0.36172494 -0.38984489 1.4580001 4290772992
0.3642813 -0.38984489 1.4580001 4290772992
0.36683765 -0.38984489 1.4580001 4283452770
0.36610037 -0.3863689 1.4450001 4282862639
0.37041971 -0.38824061 1.452 4282862639
0.37296554 -0.38824061 1.452 4284174440
0.37551141 -0.38824061 1.452 4290772992
0.37805724 -0.38824061 1.452 4290772992
0.3821758 -0.38984489 1.4580001 4290772992
0.38314891 -0.38824061 1.452 4290772992
0.38569477 -0.38824061 1.452 4290772992
0.38824061 -0.38824061 1.452 4290772992
0.38890249 -0.3863689 1.4450001 4290772992
0.39143604 -0.3863689 1.4450001 4290772992
0.39233375 -0.38476461 1.439 4290772992
0.39485681 -0.38476461 1.439 4290772992
0.39572296 -0.38316032 1.4330001 4290772992
0.39656806 -0.381556 1.427 4290772992
0.39907005 -0.381556 1.427 4290772992
0.40157208 -0.381556 1.427 4290772992
0.40407407 -0.381556 1.427 4290772992
0.40657607 -0.381556 1.427 4290772992
0.40735808 -0.37995172 1.4210001 4290772992
0.40984955 -0.37995172 1.4210001 4286545261
0.41234103 -0.37995172 1.4210001 4290772992
0.41308096 -0.37834743 1.4150001 4286479735
0.41556191 -0.37834743 1.4150001 4286545528
0.41656569 -0.37701049 1.4100001 4286544757
0.41725475 -0.37540621 1.404 4286347635
0.41971645 -0.37540621 1.404 4286149236
0.42037395 -0.37380189 1.3980001 4286149236
0.4228251 -0.37380189 1.3980001 4285887091
0.42527625 -0.37380189 1.3980001 4285821298
0.42589167 -0.3721976 1.3920001 4285756275
0.43017858 -0.37380189 1.3980001 4285756275
0.43262973 -0.37380189 1.3980001 4285690234
0.43321359 -0.3721976 1.3920001 4285690234
0.43565422 -0.3721976 1.3920001 4285952888
0.43809488 -0.3721976 1.3920001 4285952888
0.44053552 -0.3721976 1.3920001 4285755505
0.44297615 -0.3721976 1.3920001 4285755505
0.4473367 -0.37380189 1.3980001 4285952888
0.44785744 -0.3721976 1.3920001 4285887095
0.45029807 -0.3721976 1.3920001 4285887095
0.4527387 -0.3721976 1.3920001 4285887095
0.45517936 -0.3721976 1.3920001 4285952888
0.45761999 -0.3721976 1.3920001 4286018682
0.45840812 -0.3708607 1.3870001 4285887093
0.45884645 -0.36925638 1.381 4285952886
0.4612678 -0.36925638 1.381 4285887093
0.46368915 -0.36925638 1.381 4285887093
0.46611053 -0.36925638 1.381 4285887093
0.46853188 -0.36925638 1.381 4285887093
0.47095323 -0.36925638 1.381 4285887093
0.4716607 -0.36791947 1.376 4285887093
0.47407329 -0.36791947 1.376 4285821300
0.47648588 -0.36791947 1.376 4285887093
0.47889844 -0.36791947 1.376 4285821300
0.47921228 -0.36631516 1.3700001 4285821300
0.47774738 -0.36337394 1.3590001 4285690482
0.48013017 -0.36337394 1.3590001 4285624689
0.48073769 -0.36203703 1.3540001 4285624689
0.48311171 -0.36203703 1.3540001 4285624689
0.48548573 -0.36203703 1.3540001 4285755505
0.48605818 -0.3607001 1.3490001 4285755505
0.49023375 -0.36203703 1.3540001 4285690734
0.49260777 -0.36203703 1.3540001 4285756527
0.49498177 -0.36203703 1.3540001 4285756527
0.49735579 -0.36203703 1.3540001 4285624941
0.49788442 -0.3607001 1.3490001 4285624941
0.50024968 -0.3607001 1.3490001 4285559148
0.50261492 -0.3607001 1.3490001 4285558896
0.50498015 -0.3607001 1.3490001 4285361517
0.50508887 -0.35909581 1.3430001 4285296489
0.50744361 -0.35909581 1.3430001 4285296489
0.50790036 -0.35775891 1.3380001 4285295724
0.51024628 -0.35775891 1.3380001 4285361517
0.51259226 -0.35775891 1.3380001 4285296228
0.51686251 -0.35909581 1.3430001 4285098593
0.51921725 -0.35909581 1.3430001 4285098091
0.51963013 -0.35775891 1.3380001 4285098091
0.52197611 -0.35775891 1.3380001 4285032552
0.52432203 -0.35775891 1.3380001 4284900966
0.52666801 -0.35775891 1.3380001 4284900966
0.52901399 -0.35775891 1.3380001 4284900966
0.53135991 -0.35775891 1.3380001 4284835173
0.52732378 -0.35348076 1.322 4284769380
0.52964169 -0.35348076 1.322 4284507491
0.53195959 -0.35348076 1.322 4284441442
0.5342775 -0.35348076 1.322 4284638046
0.53456593 -0.35214385 1.317 4284638046
0.53687507 -0.35214385 1.317 4284571997
0.53918421 -0.35214385 1.317 4284571997
0.54149336 -0.35214385 1.317 4284308829
0.54380244 -0.35214385 1.317 4284177243
0.5440383 -0.35080692 1.312 4284243038
0.54633868 -0.35080692 1.312 4284243038
0.54863906 -0.35080692 1.312 4284176989
0.54883981 -0.34947002 1.307 4283979866
0.55113143 -0.34947002 1.307 4284111196
0.55342299 -0.34947002 1.307 4284176989
0.13916644 -0.44386771 1.6710001 4290772992
0.14209627 -0.44386771 1.6710001 4290772992
0.14502609 -0.44386771 1.6710001 4290772992
0.14795591 -0.44386771 1.6710001 4290772992
0.15016335 -0.44174269 1.6630001 4290772992
0.15307915 -0.44174269 1.6630001 4290772992
0.15674537 -0.44386771 1.6710001 4290772992
0.15891074 -0.44174269 1.6630001 4290772992
0.16182654 -0.44174269 1.6630001 4290772992
0.16474232 -0.44174269 1.6630001 4290772992
0.16765812 -0.44174269 1.6630001 4290772992
0.17139447 -0.44386771 1.6710001 4284894763
0.17432429 -0.44386771 1.6710001 4279960320
0.17725411 -0.44386771 1.6710001 4278190082
0.18018393 -0.44386771 1.6710001 4278586135
0.18311375 -0.44386771 1.6710001 4279833356
0.18604358 -0.44386771 1.6710001 4280096784
0.18897338 -0.44386771 1.6710001 4279965989
0.1919032 -0.44386771 1.6710001 4279900196
0.19390026 -0.44174269 1.6630001 4279701273
0.19776285 -0.44386771 1.6710001 4279437844
0.2047192 -0.4462584 1.6800001 4278190086
0.2076648 -0.4462584 1.6800001 4278190080
0.2106104 -0.4462584 1.6800001 4278190080
0.30566913 -0.40800768 1.536 4290772992
0.30695695 -0.40614825 1.529 4290772992
0.30963778 -0.40614825 1.529 4290772992
0.31231862 -0.40614825 1.529 4290772992
0.31376338 -0.40455449 1.5230001 4290772992
0.31497931 -0.40269509 1.516 4290772992
0.31344691 -0.39738247 1.4960001 4290772992
0.31459096 -0.39552307 1.4890001 4290772992
0.31592348 -0.39392927 1.483 4290772992
0.31852368 -0.39392927 1.483 4290772992
0.31982467 -0.3923355 1.4770001 4290772992
0.32372406 -0.39392927 1.483 4290772992
0.32500401 -0.3923355 1.4770001 4290772992
0.32892445 -0.39392927 1.483 4290772992
0.33018336 -0.3923355 1.4770001 4290772992
0.33277303 -0.3923355 1.4770001 4290772992
0.33377329 -0.39047611 1.47 4290772992
0.33635071 -0.39047611 1.47 4290772992
0.3389281 -0.39047611 1.47 4290772992
0.3415055 -0.39047611 1.47 4290772992
0.34408289 -0.39047611 1.47 4290772992
0.34666029 -0.39047611 1.47 4290772992
0.34781224 -0.38888231 1.4640001 4290772992
0.35037911 -0.38888231 1.4640001 4290772992
0.35294598 -0.38888231 1.4640001 4290772992
0.35696989 -0.39047611 1.47 4290772992
0.35807976 -0.38888231 1.4640001 4290772992
0.36064664 -0.38888231 1.4640001 4290772992
0.36321351 -0.38888231 1.4640001 4290772992
0.36578038 -0.38888231 1.4640001 4286284150
0.36834729 -0.38888231 1.4640001 4281481517
0.369394 -0.38728854 1.4580001 4281806366
0.37348104 -0.38888231 1.4640001 4281872160
0.37450674 -0.38728854 1.4580001 4283777792
0.3770631 -0.38728854 1.4580001 4290772992
0.37961945 -0.38728854 1.4580001 4290772992
0.3821758 -0.38728854 1.4580001 4290772992
0.38473219 -0.38728854 1.4580001 4290772992
0.38728854 -0.38728854 1.4580001 4290772992
0.38984489 -0.38728854 1.4580001 4290772992
0.39078644 -0.38569477 1.452 4290772992
0.39333227 -0.38569477 1.452 4290772992
0.39396963 -0.38383535 1.4450001 4290772992
0.39485681 -0.38224158 1.439 4290772992
0.39737985 -0.38224158 1.439 4290772992
0.39990288 -0.38224158 1.439 4286479998
0.40074801 -0.38064778 1.4330001 4286414205
0.40157208 -0.37905401 1.427 4286413691
0.40407407 -0.37905401 1.427 4286413691
0.40657607 -0.37905401 1.427 4286413687
0.40907809 -0.37905401 1.427 4285887343
0.41158009 -0.37905401 1.427 4285952105
0.41234103 -0.37746024 1.4210001 4286149740
0.41483253 -0.37746024 1.4210001 4286479735
0.41556191 -0.37586644 1.4150001 4285887597
0.41656569 -0.3745383 1.4100001 4285953136
0.41903791 -0.3745383 1.4100001 4285755757
0.41971645 -0.3729445 1.404 4285755757
0.42217812 -0.3729445 1.404 4285755757
0.4228251 -0.37135074 1.3980001 4285690482
0.42527625 -0.37135074 1.3980001 4285690482
0.42772743 -0.37135074 1.3980001 4285494386
0.43017858 -0.37135074 1.3980001 4285362544
0.43262973 -0.37135074 1.3980001 4285624691
0.43321359 -0.36975697 1.3920001 4285756277
0.43565422 -0.36975697 1.3920001 4285952886
0.43809488 -0.36975697 1.3920001 4286018680
0.44053552 -0.36975697 1.3920001 4286083443
0.44488555 -0.37135074 1.3980001 4286083443
0.4473367 -0.37135074 1.3980001 4285952886
0.44978786 -0.37135074 1.3980001 4285887093
0.45223901 -0.37135074 1.3980001 4285953140
0.45469019 -0.37135074 1.3980001 4285953140
0.45714134 -0.37135074 1.3980001 4285952886
0.45761999 -0.36975697 1.3920001 4285952886
0.46006063 -0.36975697 1.3920001 4285887091
0.46083999 -0.3684288 1.3870001 4285887091
0.46327186 -0.3684288 1.3870001 4285756277
0.46368915 -0.36683503 1.381 4285756277
0.46611053 -0.36683503 1.381 4285690482
0.46853188 -0.36683503 1.381 4285690482
0.47095323 -0.36683503 1.381 4285756277
0.4716607 -0.36550689 1.376 4285690484
0.47407329 -0.36550689 1.376 4285624689
0.47648588 -0.36550689 1.376 4285624689
0.47889844 -0.36550689 1.376 4285624689
0.47921228 -0.36391309 1.3700001 4285624689
0.47985664 -0.36258495 1.365 4285558896
0.48224995 -0.36258495 1.365 4285558896
0.48464325 -0.36258495 1.365 4285558896
0.48311171 -0.35966301 1.3540001 4285493103
0.48548573 -0.35966301 1.3540001 4285361517
0.48785973 -0.35966301 1.3540001 4285624689
0.49023375 -0.35966301 1.3540001 4285559148
0.49260777 -0.35966301 1.3540001 4285559148
0.49498177 -0.35966301 1.3540001 4285428589
0.49735579 -0.35966301 1.3540001 4285428589
0.49972981 -0.35966301 1.3540001 4285494382
0.50024968 -0.35833487 1.3490001 4285362796
0.50261492 -0.35833487 1.3490001 4285033835
0.50498015 -0.35833487 1.3490001 4285033835
0.50508887 -0.3567411 1.3430001 4285295724
0.50744361 -0.3567411 1.3430001 4285229931
0.50790036 -0.35541293 1.3380001 4284770664
0.51024628 -0.35541293 1.3380001 4284968042
0.51259226 -0.35541293 1.3380001 4284901995
0.51686251 -0.3567411 1.3430001 4284770666
0.51921725 -0.3567411 1.3430001 4284770666
0.52157193 -0.3567411 1.3430001 4284704872
0.52197611 -0.35541293 1.3380001 4284639077
0.52628142 -0.3567411 1.3430001 4284573284
0.52666801 -0.35541293 1.3380001 4284637281
0.52901399 -0.35541293 1.3380001 4284637281
0.53135991 -0.35541293 1.3380001 4284637533
0.53370589 -0.35541293 1.3380001 4284637533
0.53404868 -0.35408479 1.3330001 4284571487
0.52994764 -0.34983471 1.317 4284505438
0.53225678 -0.34983471 1.317 4284374622
0.53456593 -0.34983471 1.317 4284374622
0.53687507 -0.34983471 1.317 4284374356
0.53918421 -0.34983471 1.317 4284374356
0.54149336 -0.34983471 1.317 4284374356
0.54380244 -0.34983471 1.317 4284111184
0.54611158 -0.34983471 1.317 4284044887
0.55050284 -0.35116285 1.322 4284044887
0.55282074 -0.35116285 1.322 4284044887
0.55513865 -0.35116285 1.322 4283979094
0.13916644 -0.44093791 1.6710001 4290772992
0.14209627 -0.44093791 1.6710001 4290772992
0.14502609 -0.44093791 1.6710001 4290772992
0.14795591 -0.44093791 1.6710001 4290772992
0.15088573 -0.44093791 1.6710001 4290772992
0.15381555 -0.44093791 1.6710001 4290772992
0.15674537 -0.44093791 1.6710001 4290772992
0.1596752 -0.44093791 1.6710001 4290772992
0.162605 -0.44093791 1.6710001 4290772992
0.16553482 -0.44093791 1.6710001 4290772992
0.16846465 -0.44093791 1.6710001 4284437798
0.17139447 -0.44093791 1.6710001 4284763177
0.17432429 -0.44093791 1.6710001 4286276416
0.17725411 -0.44093791 1.6710001 4283910769
0.18018393 -0.44093791 1.6710001 4281739599
0.18311375 -0.44093791 1.6710001 4280295680
0.18604358 -0.44093791 1.6710001 4278782720
0.18806867 -0.43882689 1.6630001 4279177520
0.19098446 -0.43882689 1.6630001 4279309106
0.19390026 -0.43882689 1.6630001 4279503893
0.19776285 -0.44093791 1.6710001 4279372051
0.20069267 -0.44093791 1.6710001 4278584588
0.2076648 -0.44331279 1.6800001 4278190080
0.2106104 -0.44331279 1.6800001 4284371792
0.30566913 -0.40531456 1.536 4290772992
0.30836225 -0.40531456 1.536 4290772992
0.31105536 -0.40531456 1.536 4290772992
0.31374848 -0.40531456 1.536 4290772992
0.31499949 -0.40346742 1.529 4290772992
0.3164337 -0.40188417 1.5230001 4290772992
0.31617072 -0.3981899 1.5090001 4290772992
0.3160699 -0.39475948 1.4960001 4290772992
0.31720167 -0.39291236 1.4890001 4290772992
0.31981239 -0.39291236 1.4890001 4290772992
0.3224231 -0.39291236 1.4890001 4290772992
0.32372406 -0.39132908 1.483 4290772992
0.32632425 -0.39132908 1.483 4290772992
0.32892445 -0.39132908 1.483 4290772992
0.33152464 -0.39132908 1.483 4290772992
0.33277303 -0.38974583 1.4770001 4290772992
0.3353627 -0.38974583 1.4770001 4290772992
0.33635071 -0.38789868 1.47 4290772992
0.3389281 -0.38789868 1.47 4290772992
0.3415055 -0.38789868 1.47 4290772992
0.34408289 -0.38789868 1.47 4290772992
0.34666029 -0.38789868 1.47 4290772992
0.34781224 -0.38631544 1.4640001 4290772992
0.3518151 -0.38789868 1.47 4290772992
0.3543925 -0.38789868 1.47 4290772992
0.35696989 -0.38789868 1.47 4290772992
0.35807976 -0.38631544 1.4640001 4290772992
0.36064664 -0.38631544 1.4640001 4290772992
0.36321351 -0.38631544 1.4640001 4285886058
0.3672795 -0.38789868 1.47 4285097802
0.36985689 -0.38789868 1.47 4283321391
0.37091416 -0.38631544 1.4640001 4283256141
0.37501171 -0.38789868 1.47 4282992969
0.37604791 -0.38631544 1.4640001 4282532639
0.37861478 -0.38631544 1.4640001 4282993190
0.38118169 -0.38631544 1.4640001 4284898399
0.38374856 -0.38631544 1.4640001 4290772992
0.38631544 -0.38631544 1.4640001 4286412654
0.38888231 -0.38631544 1.4640001 4285952103
0.39144918 -0.38631544 1.4640001 4285756009
0.39240125 -0.38473219 1.4580001 4285756009
0.39495763 -0.38473219 1.4580001 4285755757
0.39396963 -0.38130179 1.4450001 4285755757
0.39650318 -0.38130179 1.4450001 4285558635
0.39903674 -0.38130179 1.4450001 4285360999
0.40157032 -0.38130179 1.4450001 4285426540
0.40242594 -0.37971851 1.439 4285360747
0.40326053 -0.37813526 1.4330001 4285754479
0.40577304 -0.37813526 1.4330001 4285951601
0.40828559 -0.37813526 1.4330001 4285886312
0.40907809 -0.37655202 1.427 4286017898
0.41158009 -0.37655202 1.427 4285953140
0.41408211 -0.37655202 1.427 4286018934
0.41483253 -0.37496874 1.4210001 4286150772
0.41732401 -0.37496874 1.4210001 4285953136
0.41804287 -0.37338549 1.4150001 4285887093
0.41903791 -0.37206611 1.4100001 4285887093
0.4215101 -0.37206611 1.4100001 4285821298
0.42217812 -0.37048283 1.404 4285821298
0.4228251 -0.36889958 1.3980001 4285887093
0.42527625 -0.36889958 1.3980001 4285952886
0.42772743 -0.36889958 1.3980001 4285822320
0.43017858 -0.36889958 1.3980001 4285690734
0.43448651 -0.37048283 1.404 4285821550
0.43508089 -0.36889958 1.3980001 4285887343
0.43753207 -0.36889958 1.3980001 4286149236
0.43998322 -0.36889958 1.3980001 4286149236
0.44243437 -0.36889958 1.3980001 4286149236
0.44488555 -0.36889958 1.3980001 4286149236
0.4492566 -0.37048283 1.404 4285953140
0.45171827 -0.37048283 1.404 4285887091
0.45417994 -0.37048283 1.404 4286083443
0.45664164 -0.37048283 1.404 4286215030
0.45714134 -0.36889958 1.3980001 4285953136
0.45959249 -0.36889958 1.3980001 4285887343
0.46006063 -0.36731631 1.3920001 4285822320
0.46250129 -0.36731631 1.3920001 4285690734
0.46327186 -0.36599693 1.3870001 4285821298
0.46368915 -0.36441368 1.381 4285821298
0.46611053 -0.36441368 1.381 4285624689
0.46853188 -0.36441368 1.381 4285624689
0.47095323 -0.36441368 1.381 4285624691
0.47337458 -0.36441368 1.381 4285558642
0.47579592 -0.36441368 1.381 4285624176
0.47648588 -0.3630943 1.376 4285558383
0.47889844 -0.3630943 1.376 4285558383
0.48131102 -0.3630943 1.376 4285492589
0.48161435 -0.36151102 1.3700001 4285361517
0.48224995 -0.36019164 1.365 4285295724
0.48251295 -0.35860839 1.3590001 4285295976
0.48311171 -0.35728902 1.3540001 4285230183
0.48369294 -0.35596961 1.3490001 4285230183
0.48605818 -0.35596961 1.3490001 4285230183
0.49023375 -0.35728902 1.3540001 4285295458
0.49260777 -0.35728902 1.3540001 4285295458
0.49919242 -0.35860839 1.3590001 4285164386
0.49972981 -0.35728902 1.3540001 4285032548
0.50210381 -0.35728902 1.3540001 4284835425
0.50261492 -0.35596961 1.3490001 4284703589
0.50498015 -0.35596961 1.3490001 4284637540
0.50734538 -0.35596961 1.3490001 4284703076
0.50971067 -0.35596961 1.3490001 4284703076
0.50979835 -0.35438636 1.3430001 4284505440
0.51024628 -0.35306698 1.3380001 4284439647
0.51450777 -0.35438636 1.3430001 4284374624
0.51917166 -0.35596961 1.3490001 4284374624
0.52153689 -0.35596961 1.3490001 4284308831
0.52390212 -0.35596961 1.3490001 4284243038
0.52392668 -0.35438636 1.3430001 4284308829
0.52628142 -0.35438636 1.3430001 4284308829
0.52863616 -0.35438636 1.3430001 4284373852
0.53099084 -0.35438636 1.3430001 4284439645
0.53135991 -0.35306698 1.3380001 4284374356
0.53370589 -0.35306698 1.3380001 4284374356
0.53404868 -0.3517476 1.3330001 4284176730
0.54106027 -0.3517476 1.3330001 4284111446
0.14209627 -0.4380081 1.6710001 4290772992
0.14502609 -0.4380081 1.6710001 4290772992
0.14795591 -0.4380081 1.6710001 4290772992
0.15088573 -0.4380081 1.6710001 4290772992
0.15381555 -0.4380081 1.6710001 4290772992
0.15674537 -0.4380081 1.6710001 4290772992
0.1596752 -0.4380081 1.6710001 4290772992
0.162605 -0.4380081 1.6710001 4290772992
0.16553482 -0.4380081 1.6710001 4290772992
0.16846465 -0.4380081 1.6710001 4283779140
0.17139447 -0.4380081 1.6710001 4285677824
0.17432429 -0.4380081 1.6710001 4290772992
0.17725411 -0.4380081 1.6710001 4290772992
0.18018393 -0.4380081 1.6710001 4290772992
0.18311375 -0.4380081 1.6710001 4280238417
0.18604358 -0.4380081 1.6710001 4278197035
0.18897338 -0.4380081 1.6710001 4278191623
0.1919032 -0.4380081 1.6710001 4278457365
0.19390026 -0.43591109 1.6630001 4279701273
0.19776285 -0.4380081 1.6710001 4278911500
0.20069267 -0.4380081 1.6710001 4278190080
0.20362249 -0.4380081 1.6710001 4278190080
0.2106104 -0.44036719 1.6800001 4290772992
0.30706215 -0.40445629 1.5430001 4290772992
0.30976754 -0.40445629 1.5430001 4290772992
0.31105536 -0.40262145 1.536 4290772992
0.31374848 -0.40262145 1.536 4290772992
0.3164416 -0.40262145 1.536 4290772992
0.31768033 -0.40078658 1.529 4290772992
0.31910405 -0.39921382 1.5230001 4290772992
0.32029542 -0.39737898 1.516 4290772992
0.32146227 -0.39554411 1.5090001 4290772992
0.32131585 -0.39213651 1.4960001 4290772992
0.32393885 -0.39213651 1.4960001 4290772992
0.32503381 -0.39030164 1.4890001 4290772992
0.32764453 -0.39030164 1.4890001 4290772992
0.33025524 -0.39030164 1.4890001 4290772992
0.33152464 -0.38872889 1.483 4290772992
0.33412483 -0.38872889 1.483 4290772992
0.3353627 -0.38715616 1.4770001 4290772992
0.33795238 -0.38715616 1.4770001 4290772992
0.34054205 -0.38715616 1.4770001 4290772992
0.34313172 -0.38715616 1.4770001 4290772992
0.34572139 -0.38715616 1.4770001 4290772992
0.34666029 -0.38532129 1.47 4290772992
0.34923771 -0.38532129 1.47 4290772992
0.3518151 -0.38532129 1.47 4290772992
0.3543925 -0.38532129 1.47 4290772992
0.35696989 -0.38532129 1.47 4290772992
0.35807976 -0.38374856 1.4640001 4290772992
0.36212471 -0.38532129 1.47 4290772992
0.36643878 -0.38715616 1.4770001 4285950056
0.3672795 -0.38532129 1.47 4284768335
0.36985689 -0.38532129 1.47 4283781440
0.37091416 -0.38374856 1.4640001 4283715925
0.37501171 -0.38532129 1.47 4283255374
0.37758911 -0.38532129 1.47 4281679662
0.3801665 -0.38532129 1.47 4282600764
0.3827439 -0.38532129 1.47 4283717194
0.38532129 -0.38532129 1.47 4285625191
0.38789868 -0.38532129 1.47 4285886310
0.39047611 -0.38532129 1.47 4285557601
0.3930535 -0.38532129 1.47 4285427044
0.39401609 -0.38374856 1.4640001 4285558631
0.39658296 -0.38374856 1.4640001 4285689189
0.39587811 -0.38060308 1.452 4285623140
0.39650318 -0.37876821 1.4450001 4285491039
0.39737985 -0.37719548 1.439 4285951590
0.40351564 -0.38060308 1.452 4286278506
0.40606147 -0.38060308 1.452 4286212713
0.40494898 -0.37719548 1.439 4285951592
0.40747204 -0.37719548 1.439 4286083178
0.40999508 -0.37719548 1.439 4286017646
0.4107981 -0.37562272 1.4330001 4286149488
0.41331065 -0.37562272 1.4330001 4286281586
0.41582316 -0.37562272 1.4330001 4286281586
0.4165841 -0.37404999 1.427 4286215543
0.41732401 -0.37247726 1.4210001 4286083956
0.41981551 -0.37247726 1.4210001 4286083443
0.42052385 -0.37090451 1.4150001 4286149236
0.42300481 -0.37090451 1.4150001 4285887091
0.42398229 -0.36959389 1.4100001 4285887091
0.42463979 -0.36802116 1.404 4285887091
0.42710146 -0.36802116 1.404 4285953140
0.42772743 -0.36644843 1.3980001 4285887343
0.43202484 -0.36802116 1.404 4285887343
0.43448651 -0.36802116 1.404 4286017646
0.43694821 -0.36802116 1.404 4286017646
0.43753207 -0.36644843 1.3980001 4286017650
0.44187155 -0.36802116 1.404 4286017650
0.44243437 -0.36644843 1.3980001 4285821298
0.44679493 -0.36802116 1.404 4285821298
0.4492566 -0.36802116 1.404 4285887091
0.44978786 -0.36644843 1.3980001 4285821298
0.45223901 -0.36644843 1.3980001 4286017133
0.45469019 -0.36644843 1.3980001 4286280304
0.45714134 -0.36644843 1.3980001 4286083695
0.45959249 -0.36644843 1.3980001 4286017646
0.46204364 -0.36644843 1.3980001 4285887343
0.46449482 -0.36644843 1.3980001 4285755757
0.46494192 -0.36487567 1.3920001 4285361517
0.46570373 -0.36356506 1.3870001 4285361517
0.46611053 -0.36199233 1.381 4285361517
0.46853188 -0.36199233 1.381 4285558896
0.47095323 -0.36199233 1.381 4285690482
0.47337458 -0.36199233 1.381 4285558896
0.47579592 -0.36199233 1.381 4285229931
0.47648588 -0.36068171 1.376 4285229931
0.47889844 -0.36068171 1.376 4285294954
0.48131102 -0.36068171 1.376 4285294954
0.48161435 -0.35910895 1.3700001 4285098345
0.48401642 -0.35910895 1.3700001 4285098345
0.48641849 -0.35910895 1.3700001 4284901993
0.48311171 -0.35491499 1.3540001 4284901993
0.48548573 -0.35491499 1.3540001 4285164390
0.48785973 -0.35491499 1.3540001 4284835425
0.49023375 -0.35491499 1.3540001 4284571735
0.49260777 -0.35491499 1.3540001 4284900700
0.49498177 -0.35491499 1.3540001 4285098080
0.50157517 -0.35622561 1.3590001 4284505690
0.50395799 -0.35622561 1.3590001 4284637533
0.50634074 -0.35622561 1.3590001 4284834403
0.52109593 -0.35491499 1.3540001 4284307536
0.52346992 -0.35491499 1.3540001 4284307284
0.52901399 -0.35072103 1.3380001 4284241487
0.14209627 -0.43507826 1.6710001 4290772992
0.14502609 -0.43507826 1.6710001 4290772992
0.15088573 -0.43507826 1.6710001 4290772992
0.15381555 -0.43507826 1.6710001 4290772992
0.15674537 -0.43507826 1.6710001 4290772992
0.1596752 -0.43507826 1.6710001 4290772992
0.16553482 -0.43507826 1.6710001 4290772992
0.16846465 -0.43507826 1.6710001 4290772992
0.17139447 -0.43507826 1.6710001 4290772992
0.17432429 -0.43507826 1.6710001 4290772992
0.17725411 -0.43507826 1.6710001 4290772992
0.17932129 -0.43299532 1.6630001 4290772992
0.18311375 -0.43507826 1.6710001 4290772992
0.18515287 -0.43299532 1.6630001 4282725438
0.18897338 -0.43507826 1.6710001 4279770368
0.19098446 -0.43299532 1.6630001 4278586112
0.19390026 -0.43299532 1.6630001 4278780712
0.19776285 -0.43507826 1.6710001 4278190103
0.20069267 -0.43507826 1.6710001 4278190080
0.20362249 -0.43507826 1.6710001 4278190080
0.20655231 -0.43507826 1.6710001 4284828007
0.30435675 -0.40175092 1.5430001 4290772992
0.30706215 -0.40175092 1.5430001 4290772992
0.30976754 -0.40175092 1.5430001 4290772992
0.31247294 -0.40175092 1.5430001 4290772992
0.31374848 -0.39992833 1.536 4290772992
0.3164416 -0.39992833 1.536 4290772992
0.31913471 -0.39992833 1.536 4290772992
0.32036117 -0.39810574 1.529 4290772992
0.32177436 -0.3965435 1.5230001 4290772992
0.32295349 -0.39472091 1.516 4290772992
0.32410803 -0.39289832 1.5090001 4290772992
0.32545462 -0.39133611 1.503 4290772992
0.32656184 -0.38951352 1.4960001 4290772992
0.32764453 -0.38769093 1.4890001 4290772992
0.33025524 -0.38769093 1.4890001 4290772992
0.33286595 -0.38769093 1.4890001 4290772992
0.33412483 -0.38612869 1.483 4290772992
0.33672503 -0.38612869 1.483 4290772992
0.33932522 -0.38612869 1.483 4290772992
0.34192541 -0.38612869 1.483 4285491050
0.34452561 -0.38612869 1.483 4284637503
0.3471258 -0.38612869 1.483 4284637503
0.34972599 -0.38612869 1.483 4285490793
0.35090074 -0.38456649 1.4770001 4290772992
0.35349041 -0.38456649 1.4770001 4290772992
0.35608009 -0.38456649 1.4770001 4286477154
0.35866976 -0.38456649 1.4770001 4286345064
0.35954729 -0.3827439 1.47 4286345064
0.36532715 -0.38612869 1.483 4286278506
0.36792734 -0.38612869 1.483 4286146919
0.36902845 -0.38456649 1.4770001 4285425509
0.37312773 -0.38612869 1.483 4284504407
0.37420779 -0.38456649 1.4770001 4283322468
0.37679747 -0.38456649 1.4770001 4282927710
0.37938714 -0.38456649 1.4770001 4283519842
0.38197681 -0.38456649 1.4770001 4285691012
0.38456649 -0.38456649 1.4770001 4286084979
0.38715616 -0.38456649 1.4770001 4285953136
0.38974583 -0.38456649 1.4770001 4286083945
0.3923355 -0.38456649 1.4770001 4286018152
0.3930535 -0.3827439 1.47 4286214761
0.3956309 -0.3827439 1.47 4286346347
0.39820829 -0.3827439 1.47 4286347111
0.39914984 -0.38118169 1.4640001 4286215781
0.40171671 -0.38118169 1.4640001 4286282088
0.40262669 -0.37961945 1.4580001 4286413930
0.40685049 -0.38118169 1.4640001 4286544746
0.40773943 -0.37961945 1.4580001 4286544746
0.4086073 -0.37805724 1.452 4286478703
0.41115317 -0.37805724 1.452 4290772992
0.41170457 -0.37623465 1.4450001 4290772992
0.41423815 -0.37623465 1.4450001 4286347129
0.41677171 -0.37623465 1.4450001 4286347635
0.41756421 -0.37467241 1.439 4286413428
0.41833568 -0.3731102 1.4330001 4286215795
0.41908613 -0.371548 1.427 4285952623
0.41981551 -0.36998576 1.4210001 4286083695
0.42230698 -0.36998576 1.4210001 4286083695
0.42300481 -0.36842355 1.4150001 4286083695
0.42548579 -0.36842355 1.4150001 4286017646
0.42645448 -0.3671217 1.4100001 4285887091
0.42710146 -0.36555949 1.404 4285887091
0.42772743 -0.36399725 1.3980001 4285887343
0.43387109 -0.3671217 1.4100001 4285821550
0.43634328 -0.3671217 1.4100001 4285821550
0.43694821 -0.36555949 1.404 4285755757
0.43940988 -0.36555949 1.404 4285755505
0.44375989 -0.3671217 1.4100001 4285624176
0.44433323 -0.36555949 1.404 4285755757
0.44488555 -0.36399725 1.3980001 4285624428
0.4492566 -0.36555949 1.404 4285624428
0.45171827 -0.36555949 1.404 4285558635
0.45417994 -0.36555949 1.404 4285886060
0.45664164 -0.36555949 1.404 4285886060
0.45910332 -0.36555949 1.404 4285558631
0.46156499 -0.36555949 1.404 4285492837
0.46204364 -0.36399725 1.3980001 4285492837
0.46449482 -0.36399725 1.3980001 4285164129
0.46494192 -0.36243504 1.3920001 4285163625
0.46570373 -0.36113319 1.3870001 4285163625
0.46611053 -0.35957098 1.381 4285097832
0.46853188 -0.35957098 1.381 4285097832
0.47095323 -0.35957098 1.381 4285097832
0.47337458 -0.35957098 1.381 4285032038
0.47579592 -0.35957098 1.381 4285032038
0.47821727 -0.35957098 1.381 4285032038
0.47889844 -0.35826913 1.376 4284966241
0.48131102 -0.35826913 1.376 4284966241
0.48372361 -0.35826913 1.376 4284571233
0.4861362 -0.35826913 1.376 4284505440
0.48073769 -0.35254097 1.3540001 4284374622
0.48311171 -0.35254097 1.3540001 4284440415
0.48548573 -0.35254097 1.3540001 4284505438
0.48785973 -0.35254097 1.3540001 4284505438
0.13916644 -0.43214846 1.6710001 4290772992
0.14209627 -0.43214846 1.6710001 4290772992
0.14875279 -0.43447599 1.6800001 4290772992
0.15088573 -0.43214846 1.6710001 4290772992
0.1575896 -0.43447599 1.6800001 4290772992
0.1605352 -0.43447599 1.6800001 4290772992
0.1634808 -0.43447599 1.6800001 4290772992
0.16642641 -0.43447599 1.6800001 4290772992
0.16937199 -0.43447599 1.6800001 4290772992
0.17139447 -0.43214846 1.6710001 4290772992
0.17432429 -0.43214846 1.6710001 4290772992
0.17725411 -0.43214846 1.6710001 4290772992
0.17932129 -0.43007952 1.6630001 4290772992
0.18311375 -0.43214846 1.6710001 4290772992
0.18515287 -0.43007952 1.6630001 4283643960
0.18806867 -0.43007952 1.6630001 4283379990
0.19006571 -0.42801058 1.6550001 4280419584
0.19296749 -0.42801058 1.6550001 4278780928
0.19681604 -0.43007952 1.6630001 4278190080
0.19973184 -0.43007952 1.6630001 4278190080
0.20264764 -0.43007952 1.6630001 4283716690
0.20556343 -0.43007952 1.6630001 4290772992
0.30435675 -0.39904553 1.5430001 4290772992
0.30706215 -0.39904553 1.5430001 4290772992
0.30976754 -0.39904553 1.5430001 4290772992
0.31105536 -0.39723518 1.536 4290772992
0.31374848 -0.39723518 1.536 4290772992
0.3164416 -0.39723518 1.536 4290772992
0.31913471 -0.39723518 1.536 4290772992
0.32182783 -0.39723518 1.536 4290772992
0.32304204 -0.39542487 1.529 4290772992
0.32444468 -0.39387318 1.5230001 4290772992
0.32561153 -0.39206287 1.516 4290772992
0.32826957 -0.39206287 1.516 4290772992
0.32939962 -0.39025256 1.5090001 4290772992
0.32918483 -0.38689053 1.4960001 4290772992
0.33025524 -0.38508022 1.4890001 4290772992
0.33286595 -0.38508022 1.4890001 4290772992
0.33547667 -0.38508022 1.4890001 4290772992
0.33808738 -0.38508022 1.4890001 4290772992
0.34069809 -0.38508022 1.4890001 4286479732
0.34330881 -0.38508022 1.4890001 4284045391
0.34452561 -0.3835285 1.483 4283978292
0.34853023 -0.38508022 1.4890001 4285228103
0.34972599 -0.3835285 1.483 4285359452
0.35232618 -0.3835285 1.483 4286214761
0.35492638 -0.3835285 1.483 4286149738
0.35752657 -0.3835285 1.483 4285623394
0.36012676 -0.3835285 1.483 4285622881
0.36272696 -0.3835285 1.483 4285754210
0.36532715 -0.3835285 1.483 4285949793
0.36941594 -0.38508022 1.4890001 4286147171
0.37052754 -0.3835285 1.483 4285688685
0.37463737 -0.38508022 1.4890001 4284504155
0.37572792 -0.3835285 1.483 4283716179
0.37832811 -0.3835285 1.483 4283781972
0.38092831 -0.3835285 1.483 4285095781
0.38689053 -0.38689053 1.4960001 4290772992
0.38769093 -0.38508022 1.4890001 4290772992
0.39030164 -0.38508022 1.4890001 4286281086
0.39132908 -0.3835285 1.483 4286084195
0.3923355 -0.38197681 1.4770001 4286215781
0.39492518 -0.38197681 1.4770001 4286346609
0.39751485 -0.38197681 1.4770001 4286412658
0.39820829 -0.3801665 1.47 4286347111
0.40078568 -0.3801665 1.47 4286413160
0.40336311 -0.3801665 1.47 4286347631
0.4059405 -0.3801665 1.47 4286347631
0.4085179 -0.3801665 1.47 4286544757
0.40941736 -0.37861478 1.4640001 4286544757
0.41198424 -0.37861478 1.4640001 4286413428
0.41455111 -0.37861478 1.4640001 4286413428
0.41540849 -0.3770631 1.4580001 4286544253
0.41796485 -0.3770631 1.4580001 4286412924
0.42052123 -0.3770631 1.4580001 4286413174
0.42133653 -0.37551141 1.452 4286347381
0.42008728 -0.37214938 1.439 4285887091
0.42261031 -0.37214938 1.439 4285887091
0.42513335 -0.37214938 1.439 4286017396
0.42409012 -0.36904597 1.427 4286017396
0.42909414 -0.36904597 1.427 4285951601
0.42796674 -0.36594257 1.4150001 4285951853
0.43044773 -0.36594257 1.4150001 4285886060
0.43292868 -0.36594257 1.4150001 4285624680
0.43540964 -0.36594257 1.4150001 4285756009
0.43789062 -0.36594257 1.4150001 4285624428
0.44037157 -0.36594257 1.4150001 4285558635
0.44285256 -0.36594257 1.4150001 4285755505
0.44533351 -0.36594257 1.4150001 4285624176
0.44781449 -0.36594257 1.4150001 4285558383
0.45029545 -0.36594257 1.4150001 4285492589
0.4527764 -0.36594257 1.4150001 4285492585
0.45171827 -0.36309779 1.404 4285492585
0.45417994 -0.36309779 1.404 4285558383
0.45664164 -0.36309779 1.404 4285492589
0.45910332 -0.36309779 1.404 4285164390
0.46156499 -0.36309779 1.404 4285164390
0.46368915 -0.3571496 1.381 4285097832
0.46611053 -0.3571496 1.381 4284900196
0.46853188 -0.3571496 1.381 4284900196
0.46924812 -0.35585654 1.376 4284637533
0.47337458 -0.3571496 1.381 4284834655
0.47579592 -0.3571496 1.381 4284834907
0.47821727 -0.3571496 1.381 4284834907
0.47889844 -0.35585654 1.376 4284637529
0.48131102 -0.35585654 1.376 4284571735
0.48372361 -0.35585654 1.376 4284636245
0.14580719 -0.43153039 1.6800001 4290772992
0.14875279 -0.43153039 1.6800001 4290772992
0.1516984 -0.43153039 1.6800001 4290772992
0.154644 -0.43153039 1.6800001 4290772992
0.1575896 -0.43153039 1.6800001 4290772992
0.1605352 -0.43153039 1.6800001 4290772992
0.1634808 -0.43153039 1.6800001 4290772992
0.16642641 -0.43153039 1.6800001 4290772992
0.16937199 -0.43153039 1.6800001 4290772992
0.17231759 -0.43153039 1.6800001 4290772992
0.17432429 -0.42921862 1.6710001 4290772992
0.17725411 -0.42921862 1.6710001 4290772992
0.17932129 -0.42716372 1.6630001 4290772992
0.18223709 -0.42716372 1.6630001 4290772992
0.18426219 -0.42510882 1.6550001 4285222692
0.18716395 -0.42510882 1.6550001 4282985024
0.19006571 -0.42510882 1.6550001 4282327350
0.19296749 -0.42510882 1.6550001 4280558348
0.19586925 -0.42510882 1.6550001 4278190080
0.19973184 -0.42716372 1.6630001 4281408000
0.20167278 -0.42510882 1.6550001 4290772992
0.20457456 -0.42510882 1.6550001 4290772992
0.3057375 -0.39813817 1.5500001 4290772992
0.30845517 -0.39813817 1.5500001 4290772992
0.30976754 -0.39634013 1.5430001 4290772992
0.31247294 -0.39634013 1.5430001 4286542668
0.31374848 -0.39454207 1.536 4290772992
0.3164416 -0.39454207 1.536 4290772992
0.31913471 -0.39454207 1.536 4290772992
0.32182783 -0.39454207 1.536 4290772992
0.32304204 -0.39274403 1.529 4290772992
0.32572287 -0.39274403 1.529 4290772992
0.32711503 -0.39120287 1.5230001 4290772992
0.32978535 -0.39120287 1.5230001 4290772992
0.33092764 -0.3894048 1.516 4290772992
0.33204538 -0.38760677 1.5090001 4290772992
0.33180782 -0.38426754 1.4960001 4290772992
0.33443078 -0.38426754 1.4960001 4290772992
0.33705378 -0.38426754 1.4960001 4286280054
0.33808738 -0.38246951 1.4890001 4284766559
0.34069809 -0.38246951 1.4890001 4282991423
0.34330881 -0.38246951 1.4890001 4282859836
0.34591952 -0.38246951 1.4890001 4283582542
0.34853023 -0.38246951 1.4890001 4285490539
0.35114095 -0.38246951 1.4890001 4285753710
0.35375166 -0.38246951 1.4890001 4285885297
0.35803768 -0.38426754 1.4960001 4286017385
0.36066067 -0.38426754 1.4960001 4285885799
0.3615838 -0.38246951 1.4890001 4286411107
0.36419451 -0.38246951 1.4890001 4286542949
0.36680523 -0.38246951 1.4890001 4286477154
0.36941594 -0.38246951 1.4890001 4290772992
0.37202665 -0.38246951 1.4890001 4286347381
0.37463737 -0.38246951 1.4890001 4285294693
0.37724808 -0.38246951 1.4890001 4284374124
0.37985879 -0.38246951 1.4890001 4285361020
0.38870084 -0.3860656 1.503 4290772992
0.39289832 -0.38760677 1.5090001 4290772992
0.39397135 -0.3860656 1.503 4290772992
0.39291236 -0.38246951 1.4890001 4286018141
0.39552307 -0.38246951 1.4890001 4286346849
0.39652947 -0.38092831 1.483 4286412404
0.39912969 -0.38092831 1.483 4286215282
0.40010452 -0.37938714 1.4770001 4286346851
0.40078568 -0.37758911 1.47 4286412645
0.40528387 -0.37938714 1.4770001 4286150251
0.4059405 -0.37758911 1.47 4285821287
0.4085179 -0.37758911 1.47 4285951853
0.41109529 -0.37758911 1.47 4285886060
0.41367269 -0.37758911 1.47 4285886060
0.41625011 -0.37758911 1.47 4285688937
0.4188275 -0.37758911 1.47 4285688685
0.4214049 -0.37758911 1.47 4285688685
0.42225176 -0.37604791 1.4640001 4285688685
0.42307758 -0.37450674 1.4580001 4285688685
0.42388237 -0.37296554 1.452 4285492083
0.4243724 -0.37116751 1.4450001 4285492083
0.42690599 -0.37116751 1.4450001 4285754229
0.42978144 -0.36500278 1.4210001 4285492837
0.43044773 -0.36346161 1.4150001 4285361251
0.43540964 -0.36346161 1.4150001 4285361251
0.43789062 -0.36346161 1.4150001 4285163877
0.44223887 -0.36500278 1.4210001 4284966241
0.44285256 -0.36346161 1.4150001 4284965991
0.44533351 -0.36346161 1.4150001 4285031784
0.44781449 -0.36346161 1.4150001 4285228386
0.45029545 -0.36346161 1.4150001 4285294180
0.45469633 -0.36500278 1.4210001 4285096548
0.45171827 -0.36063612 1.404 4285030755
0.45417994 -0.36063612 1.404 4284834405
0.45664164 -0.36063612 1.404 4284637027
0.45910332 -0.36063612 1.404 4284637281
0.14580719 -0.42858478 1.6800001 4290772992
0.14875279 -0.42858478 1.6800001 4290772992
0.1516984 -0.42858478 1.6800001 4290772992
0.154644 -0.42858478 1.6800001 4290772992
0.1575896 -0.42858478 1.6800001 4290772992
0.1605352 -0.42858478 1.6800001 4290772992
0.1634808 -0.42858478 1.6800001 4290772992
0.16642641 -0.42858478 1.6800001 4290772992
0.16937199 -0.42858478 1.6800001 4290772992
0.17231759 -0.42858478 1.6800001 4290772992
0.17432429 -0.42628881 1.6710001 4290772992
0.17725411 -0.42628881 1.6710001 4290772992
0.17932129 -0.42424792 1.6630001 4290772992
0.18223709 -0.42424792 1.6630001 4290772992
0.18426219 -0.42220706 1.6550001 4290772992
0.18716395 -0.42220706 1.6550001 4285946013
0.19006571 -0.42220706 1.6550001 4281472346
0.19296749 -0.42220706 1.6550001 4281139456
0.19586925 -0.42220706 1.6550001 4280156160
0.19877101 -0.42220706 1.6550001 4284099072
0.20167278 -0.42220706 1.6550001 4290772992
0.20457456 -0.42220706 1.6550001 4290772992
0.20847923 -0.42424792 1.6630001 4290772992
0.3057375 -0.39542049 1.5500001 4290772992
0.30706215 -0.39363474 1.5430001 4290772992
0.30976754 -0.39363474 1.5430001 4290772992
0.31247294 -0.39363474 1.5430001 4290772992
0.31517833 -0.39363474 1.5430001 4286542168
0.3164416 -0.39184895 1.536 4290772992
0.31913471 -0.39184895 1.536 4290772992
0.32182783 -0.39184895 1.536 4290772992
0.32452095 -0.39184895 1.536 4290772992
0.32572287 -0.3900632 1.529 4290772992
0.32840371 -0.3900632 1.529 4290772992
0.33108455 -0.3900632 1.529 4290772992
0.33245566 -0.38853252 1.5230001 4290772992
0.33358568 -0.38674676 1.516 4290772992
0.33469117 -0.38496098 1.5090001 4290772992
0.33733696 -0.38496098 1.5090001 4290772992
0.33863091 -0.38343033 1.503 4285361251
0.33967677 -0.38164455 1.4960001 4283453254
0.34229976 -0.38164455 1.4960001 4283056936
0.34492275 -0.38164455 1.4960001 4283320108
0.34754574 -0.38164455 1.4960001 4284107321
0.3501687 -0.38164455 1.4960001 4286212953
0.3527917 -0.38164455 1.4960001 4286214259
0.35541469 -0.38164455 1.4960001 4286017137
0.35803768 -0.38164455 1.4960001 4286344299
0.36328366 -0.38164455 1.4960001 4290772992
0.36590663 -0.38164455 1.4960001 4290772992
0.36852962 -0.38164455 1.4960001 4286542699
0.37115261 -0.38164455 1.4960001 4290772992
0.3737756 -0.38164455 1.4960001 4286412924
0.37639859 -0.38164455 1.4960001 4285228650
0.37902158 -0.38164455 1.4960001 4284176982
0.38164455 -0.38164455 1.4960001 4285295206
0.39025256 -0.38496098 1.5090001 4290772992
0.39472091 -0.38674676 1.516 4290772992
0.39737898 -0.38674676 1.516 4286015601
0.3981899 -0.38496098 1.5090001 4285685594
0.39738247 -0.38164455 1.4960001 4286474854
0.39813378 -0.37985879 1.4890001 4286215030
0.4007445 -0.37985879 1.4890001 4286083443
0.40010452 -0.37679747 1.4770001 4286084195
0.40078568 -0.37501171 1.47 4286018402
0.40528387 -0.37679747 1.4770001 4285623140
0.40787354 -0.37679747 1.4770001 4285623140
0.41046321 -0.37679747 1.4770001 4285754210
0.41305289 -0.37679747 1.4770001 4285754210
0.41564256 -0.37679747 1.4770001 4285754212
0.41625011 -0.37501171 1.47 4285491041
0.4188275 -0.37501171 1.47 4285817957
0.42225176 -0.37348104 1.4640001 4285556582
0.42481863 -0.37348104 1.4640001 4285622631
0.42563394 -0.37195039 1.4580001 4285557095
0.4243724 -0.36863396 1.4450001 4285557095
0.43974739 -0.36251131 1.4210001 4285032286
0.44223887 -0.36251131 1.4210001 4284966493
0.44473037 -0.36251131 1.4210001 4285162593
0.44722185 -0.36251131 1.4210001 4285096544
0.44971335 -0.36251131 1.4210001 4285030490
0.45220482 -0.36251131 1.4210001 4284898903
0.45469633 -0.36251131 1.4210001 4284767061
0.4571878 -0.36251131 1.4210001 4284767061
0.45417994 -0.35817444 1.404 4284832606
0.45664164 -0.35817444 1.404 4284635484
0.13916644 -0.42335898 1.6710001 4290772992
0.14209627 -0.42335898 1.6710001 4290772992
0.14502609 -0.42335898 1.6710001 4290772992
0.1516984 -0.42563921 1.6800001 4290772992
0.154644 -0.42563921 1.6800001 4290772992
0.1575896 -0.42563921 1.6800001 4290772992
0.1605352 -0.42563921 1.6800001 4290772992
0.1634808 -0.42563921 1.6800001 4290772992
0.16642641 -0.42563921 1.6800001 4290772992
0.16937199 -0.42563921 1.6800001 4283713571
0.17231759 -0.42563921 1.6800001 4284507183
0.17432429 -0.42335898 1.6710001 4285888836
0.17725411 -0.42335898 1.6710001 4290772992
0.17932129 -0.42133212 1.6630001 4290772992
0.18136041 -0.41930529 1.6550001 4290772992
0.18426219 -0.41930529 1.6550001 4290772992
0.18716395 -0.41930529 1.6550001 4290772992
0.18914697 -0.41727844 1.6470001 4290772992
0.19203471 -0.41727844 1.6470001 4290772992
0.19492245 -0.41727844 1.6470001 4286279467
0.19781019 -0.41727844 1.6470001 4290772992
0.20069793 -0.41727844 1.6470001 4290772992
0.20457456 -0.41930529 1.6550001 4290772992
0.20847923 -0.42133212 1.6630001 4290772992
0.30301982 -0.39270282 1.5500001 4290772992
0.3057375 -0.39270282 1.5500001 4290772992
0.30845517 -0.39270282 1.5500001 4290772992
0.31117284 -0.39270282 1.5500001 4290772992
0.31247294 -0.39092934 1.5430001 4290772992
0.31517833 -0.39092934 1.5430001 4290772992
0.3178837 -0.39092934 1.5430001 4285949793
0.31913471 -0.38915583 1.536 4286410857
0.32182783 -0.38915583 1.536 4290772992
0.32452095 -0.38915583 1.536 4290772992
0.32721409 -0.38915583 1.536 4290772992
0.32840371 -0.38738233 1.529 4286476650
0.33260033 -0.38915583 1.536 4286147942
0.33376542 -0.38738233 1.529 4285029488
0.33644626 -0.38738233 1.529 4284634730
0.33779633 -0.3858622 1.5230001 4284044097
0.33890179 -0.3840887 1.516 4283451959
0.33998272 -0.38231522 1.5090001 4283320360
0.34262851 -0.38231522 1.5090001 4283188517
0.34390143 -0.38079506 1.503 4283384647
0.3465367 -0.38079506 1.503 4283845198
0.34917194 -0.38079506 1.503 4284370259
0.35321164 -0.38231522 1.5090001 4290772992
0.3558574 -0.38231522 1.5090001 4290772992
0.35850319 -0.38231522 1.5090001 4290772992
0.36114895 -0.38231522 1.5090001 4286412658
0.36379474 -0.38231522 1.5090001 4286215280
0.36644053 -0.38231522 1.5090001 4290772992
0.3690863 -0.38231522 1.5090001 4290772992
0.37025404 -0.38079506 1.503 4286542699
0.37288928 -0.38079506 1.503 4286542699
