# .PCD v0.7 - Point Cloud Data file format
VERSION 0.7
FIELDS x y z
SIZE 4 4 4
TYPE F F F
COUNT 1 1 1
WIDTH 1475
HEIGHT 1
VIEWPOINT 0 0 0 1 0 0 0
POINTS 1475
DATA ascii
-1.8197143 0.034571432 3.3000002
-1.7017677 0.34524193 3.2080002
-1.3656915 0.054994289 3.2080002
-1.2859486 -0.49340957 3.2380002
-0.81252289 -1.0747315 3.3990002
-1.8239772 0.015276191 3.2080002
-1.3534704 -0.021386668 3.2080002
-1.8239772 -0.08860191 3.2080002
-1.3137524 -0.11609905 3.2080002
-1.3239914 -1.1847944 3.3990002
-1.3137524 -0.12526478 3.2080002
-1.873143 -0.22628573 3.3000002
-1.295421 -0.17414859 3.2080002
-1.3106972 -0.20470096 3.2080002
-1.4340544 -0.80604857 3.3990002
-1.7658238 -0.27560955 3.3650002
-1.384023 -0.23525335 3.2080002
-1.4940114 -0.23525335 3.2080002
-1.2740344 -0.24136381 3.2080002
-1.1345714 -1.1251429 3.3000002
-1.3168076 -0.24136381 3.2080002
-1.4054096 -0.24441905 3.2080002
-1.3779125 -0.24441905 3.2080002
-1.4756801 -0.26580572 3.2080002
-0.59399998 -1.1345714 3.3000002
-1.6762077 -1.1530381 3.6140001
-0.9837867 -0.29330286 3.2080002
-1.0143391 -0.28413716 3.2080002
-0.98480511 -0.32283688 3.2080002
-1.5862 -0.20394 3.3990002
-1.0143391 -0.32385528 3.2080002
-1.0235049 -0.32385528 3.2080002
-1.2740344 -0.32080004 3.2080002
-1.4634591 -0.32080004 3.2080002
-1.2557029 -0.3360762 3.2080002
-0.96851051 -0.35440764 3.2080002
-1.0357258 -0.35746288 3.2080002
-1.4369805 -0.35542607 3.2080002
-1.4823915 0.13014573 3.3330002
-1.4542934 -0.35135239 3.2080002
-1.0418363 -0.38190478 3.2080002
-1.7998202 -0.047614288 3.3330002
-1.4512382 -0.38496 3.2080002
-0.96240008 -0.41551241 3.2080002
-0.98381335 -0.53549337 3.2690001
-1.3045866 -0.41245717 3.2080002
-1.6455895 -1.0437143 3.6530001
-1.0418363 -0.44606477 3.2080002
-1.2465372 -0.42467812 3.2080002
-1.0357258 -0.46439621 3.2080002
-1.243482 -0.4796724 3.2080002
-1.2862554 -0.4796724 3.2080002
-1.3351392 -0.4796724 3.2080002
-1.2274238 -1.2338334 3.3650002
-1.4145753 -0.4796724 3.2080002
-1.2862554 -0.48578286 3.2080002
-1.6143086 -0.59600002 3.5760002
-1.243482 -0.48578286 3.2080002
-1.7914621 0.22753811 3.3650002
-1.4145753 -0.49189335 3.2080002
-1.0448916 -0.50411427 3.2080002
-0.9501791 -0.51328003 3.2080002
-1.3931887 -0.51022476 3.2080002
-1.4062172 0.058592383 3.2380002
-1.2129296 -0.5652191 3.2080002
-0.9257372 -0.57132959 3.2080002
-0.89518476 -0.58355051 3.2080002
-1.0723886 -0.59577149 3.2080002
-1.9036288 -0.69543338 3.3650002
-1.1945982 -0.59577149 3.2080002
-1.2007086 -0.59577149 3.2080002
-1.7034287 -0.16028571 3.3000002
-0.86463243 -0.60188192 3.2080002
-1.3779125 -0.23525335 3.2080002
-1.0723886 -0.6049372 3.2080002
-0.76686484 -0.64465529 3.2080002
-1.0479468 -0.65076572 3.2080002
-1.4036858 -0.59608579 3.3650002
-1.0601677 -0.65687621 3.2080002
-0.76686484 -0.68437338 3.2080002
-1.0173943 -0.6813181 3.2080002
-1.0235049 -0.6813181 3.2080002
-0.89453053 -0.98301256 3.3990002
-1.1090515 -0.6629867 3.2080002
-1.1823772 -0.69353908 3.2080002
-0.55299813 -0.71798098 3.2080002
-0.6232686 -0.71492571 3.2080002
-0.76075435 -0.71492577 3.2080002
-1.1640457 -0.71492577 3.2080002
-0.5652191 -0.74547815 3.2080002
-1.1722857 -1.1942858 3.3000002
-0.5733664 -0.74445981 3.2080002
-0.74242294 -0.74242294 3.2080002
-1.2288572 -0.89571434 3.3000002
-1.1059961 -0.74242294 3.2080002
-1.1365486 -0.74547815 3.2080002
-1.15488 -0.74242294 3.2080002
-0.5652191 -0.77603054 3.2080002
-1.2257143 -0.86428577 3.3000002
-0.5733664 -0.77704895 3.2080002
-1.2251506 -0.47356191 3.2080002
-0.6548394 -0.77704895 3.2080002
-1.6760906 0.20510477 3.3650002
-0.6813181 -0.77603054 3.2080002
-1.0157715 -0.98402864 3.3330002
-1.1457144 -0.79436195 3.2080002
-1.376407 -0.23539749 3.2380004
-1.3757858 -0.77367717 3.3990002
-0.5652191 -0.80963814 3.2080002
-0.73325723 -0.80658287 3.2080002
-1.1090515 -0.80658293 3.2080002
-1.8234277 -1.075182 3.5390003
-1.7933772 -0.41435429 3.3990002
-0.5652191 -0.83408004 3.2080002
-0.57132959 -0.83408004 3.2080002
-0.6813181 -0.83408004 3.2080002
-0.63200665 -0.7814467 3.2690001
-0.98386192 -0.7659381 3.3650002
-1.4352467 -0.22416 3.2690001
-1.1059961 -0.83408004 3.2080002
-1.1365486 -0.83408004 3.2080002
-1.2100002 -1.2351428 3.3000002
-0.73631245 -0.84019053 3.2080002
-0.5652191 -0.86463243 3.2080002
-0.71798098 -0.86463243 3.2080002
-0.51633525 -0.88296384 3.2080002
-1.644043 -0.23394763 3.3650002
-0.57438481 -0.88296384 3.2080002
-0.5652191 -0.89518476 3.2080002
-1.5414906 0.0064095245 3.3650002
-0.68437338 -0.89518476 3.2080002
-1.4340544 -0.83194572 3.3990002
-1.1090515 -0.89518476 3.2080002
-1.5246391 -0.93079722 3.5030003
-1.1212724 -0.89518476 3.2080002
-1.1059961 -0.90435052 3.2080002
-1.1212724 -0.90435052 3.2080002
-0.73325717 -0.9257372 3.2080002
-0.53466666 -0.9501791 3.2080002
-0.71390736 -0.95425272 3.2080002
-0.53466666 -0.98684198 3.2080002
-0.54383242 -0.9837867 3.2080002
-0.6965943 -0.98073149 3.2080002
-0.65691334 -1.1301399 3.2690001
-0.53466666 -1.0143391 3.2080002
-0.54077715 -1.0173943 3.2080002
-0.53466666 -1.0235049 3.2080002
-0.54077715 -1.0235049 3.2080002
-0.4796724 -1.1151619 3.2080002
-0.50411427 -1.1396039 3.2080002
-0.47356191 -1.2251506 3.2080002
-1.2007086 -0.60188192 3.2080002
-1.1732115 -1.2251506 3.2080002
-1.4665143 -1.2251506 3.2080002
-1.4940114 -1.2159848 3.2080002
-1.648163 -0.67409527 3.5390003
-1.5245639 -1.2251506 3.2080002
-1.1965181 -1.2335238 3.2380002
-1.6437181 -1.2251506 3.2080002
-1.5551163 -1.2343163 3.2080002
-0.62601334 -0.8048743 3.2380002
-1.7066915 -0.38580382 3.4330001
-0.59577149 -1.2465372 3.2080002
-0.80760133 -1.2455189 3.2080002
-0.95323431 -1.2495924 3.2080002
-0.65380001 -1.0741 3.2690001
-1.0035143 -1.0455972 3.3990002
-1.137567 -1.2455189 3.2080002
-1.82648 -0.96443427 3.4680002
-1.1701562 -1.243482 3.2080002
-1.3443048 -1.243482 3.2080002
-1.6742706 -1.243482 3.2080002
-0.47661716 -1.2557029 3.2080002
-1.9132429 -0.83003336 3.3650002
-0.50411427 -1.2557029 3.2080002
-0.53466666 -1.2557029 3.2080002
-0.5560534 -1.2557029 3.2080002
-0.6232686 -1.2557029 3.2080002
-0.71492577 -1.2557029 3.2080002
-0.74547815 -1.2557029 3.2080002
-0.77297527 -1.2557029 3.2080002
-1.7966143 -1.0002772 3.3990002
-0.84324574 -1.2557029 3.2080002
-0.9257372 -1.2495924 3.2080002
-1.0968306 -1.2557029 3.2080002
-1.2129296 -1.2557029 3.2080002
-1.7078781 -1.2557029 3.2080002
-1.2832 -0.38190478 3.2080002
-1.4058954 -1.1639506 3.4330001
-1.7231543 -1.2557029 3.2080002
-0.47661716 -1.2618134 3.2080002
-0.48578286 -1.2618134 3.2080002
-0.6232686 -1.2648686 3.2080002
-0.68437338 -1.2648686 3.2080002
-0.71187049 -1.2618134 3.2080002
-0.83408004 -1.2618134 3.2080002
-0.63243431 -0.69964951 3.2080002
-0.89518476 -1.2618134 3.2080002
-1.0235049 -1.2618134 3.2080002
-1.7353754 -1.2648686 3.2080002
-1.744541 -1.2679238 3.2080002
-0.9837867 -1.2740344 3.2080002
-1.435321 -1.1345247 3.4330001
-1.0143391 -1.2618134 3.2080002
-1.7659278 -1.3137524 3.2080002
-1.7659278 -1.3229182 3.2080002
-1.781204 -1.34736 3.2080002
-1.5313115 -0.92412478 3.5030003
-1.8056458 -1.3779125 3.2080002
-1.6113801 -0.55047148 3.5030003
-1.8148115 -1.3901335 3.2080002
-1.8574287 -0.16342857 3.3000002
-1.4467468 0.97761333 3.1780002
-1.3166001 0.033293337 3.1780002
-1.3166001 0.0060533336 3.1780002
-0.98412669 -1.1345247 3.4330001
-1.2863334 -0.027240001 3.1780002
-1.3166001 -0.0060533336 3.1780002
-1.3135734 -0.054480001 3.1780002
-0.9501791 -0.47661716 3.2080002
-1.2833067 -0.084746674 3.1780002
-1.2923868 -0.084746674 3.1780002
-1.2833067 -0.11501335 3.1780002
-1.2923868 -0.11501335 3.1780002
-1.2923868 -0.12409334 3.1780002
-1.03512 -0.17252001 3.1780002
-0.98972005 -0.20581335 3.1780002
-0.86528575 -1.2146049 3.3650002
-1.0169601 -0.20581335 3.1780002
-0.95642674 -0.22094668 3.1780002
-0.96550667 -0.23910667 3.1780002
-1.0169601 -0.23608001 3.1780002
-1.0320934 -0.22094668 3.1780002
-1.7042744 -0.44588572 3.4680002
-1.2520312 -0.23507112 3.1780002
-1.2954135 -0.23910667 3.1780002
-1.0169601 -0.26634669 3.1780002
-1.2530401 -0.26634669 3.1780002
-0.97458673 -0.27542669 3.1780002
-0.9594534 -0.29661334 3.1780002
-1.3137144 -0.5657143 3.3000002
-1.2833067 -0.29661334 3.1780002
-1.3135734 -0.29661334 3.1780002
-1.43464 -0.29661334 3.1780002
-1.0149467 -0.50747329 3.2690001
-0.85460573 -0.80604857 3.3990002
-1.4467468 -0.29661334 3.1780002
-0.95642674 -0.32688001 3.1780002
-1.0199867 -0.32688001 3.1780002
-1.0320934 -0.32688001 3.1780002
-1.2520312 -0.31376445 3.1780002
-1.3135734 -0.32688001 3.1780002
-1.3408134 -0.31477335 3.1780002
-1.0199867 -0.33596003 3.1780002
-1.3771334 -0.34806669 3.1780002
-0.95340008 -0.35412002 3.1780002
-0.86407334 -1.1643306 3.5030003
-1.2560668 -0.35412002 3.1780002
-1.3135734 -0.35412002 3.1780002
-1.7077813 -0.44356543 3.4330001
-1.32568 -0.35412002 3.1780002
-0.77770001 -1.1078258 3.3330002
-1.2863334 -0.37228 3.1780002
-0.95340008 -0.38438669 3.1780002
-1.9519057 -1.284923 3.4330001
-1.04608 -0.65380001 3.2690001
-1.0442001 -0.38438669 3.1780002
-1.06236 -0.38438669 3.1780002
-1.2258 -0.38438669 3.1780002
-1.765543 -1.1966457 3.4330001
-1.3135734 -0.38438669 3.1780002
-1.3741068 -0.38438669 3.1780002
-1.4074001 -0.38438669 3.1780002
-1.8569572 -0.62533426 3.3330002
-1.2318534 -0.40557337 3.1780002
-1.3771334 -0.40860003 3.1780002
-0.75654 -1.0149467 3.2690001
-1.4154713 -0.40456447 3.1780002
-0.95470095 -0.83372861 3.4330001
-1.1239133 -0.95579332 3.2690001
-1.1955334 -0.41465333 3.1780002
-1.8537829 -0.14601715 3.3330002
-1.2258 -0.41465333 3.1780002
-1.3135734 -0.41465333 3.1780002
-1.4043734 -0.40557337 3.1780002
-1.4648095 -0.41323048 3.2380002
-0.94734669 -0.44492003 3.1780002
-1.29162 -1.1556602 3.3990002
-1.1955334 -0.44492003 3.1780002
-1.4539267 0.0062266667 3.2690001
-1.7045915 -1.2030543 3.3330002
-0.93524009 -0.47518671 3.1780002
-1.0744667 -0.47518671 3.1780002
-1.2136934 -0.47518671 3.1780002
-1.3438401 -0.47518671 3.1780002
-1.3741068 -0.47518671 3.1780002
-0.98381335 -0.61332667 3.2690001
-1.4013467 -0.45400003 3.1780002
-1.2266533 -0.65380001 3.2690001
-1.2136934 -0.48124003 3.1780002
-1.8026199 -0.024906667 3.2690001
-1.696263 -0.62476856 3.3990002
-0.99066567 -1.0135524 3.4330001
-1.3831867 -0.49334669 3.1780002
-0.9291867 -0.50545335 3.1780002
-0.93524009 -0.50545335 3.1780002
-1.06236 -0.50545335 3.1780002
-1.1652666 -0.50545335 3.1780002
-0.59464669 -1.04608 3.2690001
-1.4941723 -1.16722 3.4330001
-1.1955334 -0.50545335 3.1780002
-1.675143 0.040857144 3.3000002
-1.3468667 -0.50545335 3.1780002
-1.854883 -0.70245999 3.3990002
-1.3529201 -0.51150668 3.1780002
-1.3168572 -1.2351428 3.3000002
-0.9291867 -0.52361333 3.1780002
-1.1652666 -0.52664 3.1780002
-0.94129342 -0.53572005 3.1780002
-0.95822388 -0.84605718 3.3650002
-1.0442001 -0.53572005 3.1780002
-1.1955334 -0.52664 3.1780002
-0.93524009 -0.54177338 3.1780002
-1.0442001 -0.54480004 3.1780002
-1.0744667 -0.56598669 3.1780002
-1.8555467 -0.13387333 3.2690001
-1.1652666 -0.56598669 3.1780002
-1.1955334 -0.55388004 3.1780002
-0.86562669 -0.59020001 3.1780002
-1.2859486 -0.41323048 3.2380002
-1.0744667 -0.59322667 3.1780002
-1.3135734 -0.44492003 3.1780002
-1.7034287 0.20428573 3.3000002
-1.0744667 -0.62349337 3.1780002
-1.435321 -0.86642379 3.4330001
-1.1047335 -0.62349337 3.1780002
-1.1350001 -0.62349337 3.1780002
-0.7555334 -0.77403623 3.2380002
-1.7053468 0.16344191 3.2380002
-1.1652666 -0.61441338 3.1780002
-0.74758673 -0.65376002 3.1780002
-0.75666678 -0.65376002 3.1780002
-1.7644532 -0.5939635 3.4330001
-1.0744667 -0.65073335 3.1780002
-1.1047335 -0.65376002 3.1780002
-1.8299192 -0.48391908 3.3650002
-1.1531601 -0.65376002 3.1780002
-0.74758673 -0.68402672 3.1780002
-0.75364006 -0.68402672 3.1780002
-1.8865153 -0.92527521 3.4330001
-1.6347573 -0.064742863 3.3990002
-1.1350001 -0.68402672 3.1780002
-1.1652666 -0.67494667 3.1780002
-1.5286715 0.15062383 3.3650002
-1.1410534 -0.69613338 3.1780002
-1.2557029 -0.41245717 3.2080002
-1.2266533 -0.6849333 3.2690001
-1.6953191 0.23394763 3.3650002
-0.54379117 -0.71530223 3.1780002
-0.62652004 -0.71126676 3.1780002
-0.65376002 -0.71429336 3.1780002
-1.1047335 -0.71429336 3.1780002
-0.53572005 -0.73548001 3.1780002
-1.7915343 -1.0442277 3.5030003
-0.68402672 -0.74456006 3.1780002
-0.71429336 -0.74456 3.1780002
-0.72337335 -0.7415334 3.1780002
-1.1047335 -0.74758673 3.1780002
-1.1138134 -0.74456006 3.1780002
-1.0159096 -0.92617625 3.3650002
-0.65476894 -0.75565785 3.1780002
-0.55388004 -0.77482671 3.1780002
-0.68402672 -0.77482677 3.1780002
-1.1107867 -0.77180004 3.1780002
-0.57204002 -0.79601336 3.1780002
-0.65376002 -0.80509335 3.1780002
-0.71429342 -0.80509341 3.1780002
-1.1047335 -0.80509341 3.1780002
-1.7062628 -1.1613486 3.5760002
-1.1228935 -0.80509341 3.1780002
-0.53572005 -0.83838671 3.1780002
-1.7207887 -0.53506291 3.4680002
-0.65678668 -0.83233339 3.1780002
-1.6055858 -0.23394763 3.3650002
-1.9519057 -0.98412669 3.4330001
-0.71429336 -0.83536005 3.1780002
-0.98409152 -0.98409152 3.3990002
-1.1047335 -0.83536005 3.1780002
-1.1107867 -0.84444004 3.1780002
-0.50545335 -0.85654676 3.1780002
-0.68705338 -0.85352004 3.1780002
-0.71429336 -0.86865336 3.1780002
-1.2862554 -0.35135239 3.2080002
-1.7263086 -0.44465524 3.4330001
-0.72337335 -0.87470675 3.1780002
-0.71126676 -0.89589339 3.1780002
-0.47518671 -1.1350001 3.1780002
-0.48124003 -1.1350001 3.1780002
-0.56433713 -0.86346668 3.2380002
-0.48124003 -1.14408 3.1780002
-1.2858067 -0.65380001 3.2690001
-0.44492003 -1.1652666 3.1780002
-1.7034287 0.056571431 3.3000002
-0.44492003 -1.1955334 3.1780002
-1.3741068 -0.25121334 3.1780002
-0.45097336 -1.1955334 3.1780002
-1.5859735 -1.2167201 3.1780002
-1.6739962 -0.4250381 3.4330001
-0.46308002 -1.2258 3.1780002
-1.3468667 -1.2258 3.1780002
-1.3529201 -1.2258 3.1780002
-1.43464 -1.2258 3.1780002
-1.3347601 -1.2379068 3.1780002
-1.1652666 -1.24396 3.1780002
-1.4206858 -0.44300956 3.2080002
-0.41465333 -1.2530401 3.1780002
-0.50545335 -1.2530401 3.1780002
-0.53572005 -1.2530401 3.1780002
-0.56598669 -1.2530401 3.1780002
-0.59020001 -1.2530401 3.1780002
-0.65376002 -1.2530401 3.1780002
-0.66284007 -1.2530401 3.1780002
-1.9116372 -1.0775896 3.5030003
-0.74456006 -1.2500134 3.1780002
-1.74482 -0.26544571 3.3990002
-0.83536005 -1.2560668 3.1780002
-0.9261601 -1.2530401 3.1780002
-0.83408004 -1.2557029 3.2080002
-1.0316429 -0.9364143 3.3330002
-1.2210144 -1.1633286 3.3650002
-0.95340008 -1.2530401 3.1780002
-1.3744658 -0.56502289 3.3330002
-0.98972005 -1.2560668 3.1780002
-1.8823515 -0.50471145 3.3330002
-1.017969 -1.2540491 3.1780002
-0.79514289 -0.74485719 3.3000002
-1.0442001 -1.2530401 3.1780002
-1.7627591 -0.97406769 3.5390003
-1.0744667 -1.2530401 3.1780002
-1.4445868 -0.0062266667 3.2690001
-1.1047335 -1.2530401 3.1780002
-1.1350001 -1.24396 3.1780002
-1.2530401 -1.2530401 3.1780002
-1.705461 -0.95384479 3.5390003
-1.2833067 -1.24396 3.1780002
-1.8299192 -0.30445239 3.3650002
-1.4376667 -1.2500134 3.1780002
-1.5244312 -1.2520312 3.1780002
-1.5587335 -1.2500134 3.1780002
-1.4632666 -0.22727334 3.2690001
-1.5161934 -0.41407335 3.2690001
-1.5859735 -1.2530401 3.1780002
-1.61624 -1.2500134 3.1780002
-1.6638916 0.055031434 3.3990002
-1.6465068 -1.2530401 3.1780002
-1.4647467 -0.89584959 3.4330001
-1.6767734 -1.2530401 3.1780002
-1.7130934 -1.2560668 3.1780002
-1.7020906 -1.1762962 3.5390003
-1.7357953 -1.0145135 3.5390003
-0.47518671 -1.26212 3.1780002
-0.48124003 -1.26212 3.1780002
-0.59322667 -1.26212 3.1780002
-0.62349337 -1.26212 3.1780002
-0.70521337 -1.26212 3.1780002
-0.86562669 -1.2651466 3.1780002
-1.0169601 -1.2651467 3.1780002
-1.1955334 -1.26212 3.1780002
-1.2530401 -1.26212 3.1780002
-0.65678668 -1.2742268 3.1780002
-0.68402672 -1.2651467 3.1780002
-0.89892006 -1.2742268 3.1780002
-0.91405338 -1.2742268 3.1780002
-1.1031429 -1.1345714 3.3000002
-1.1059961 -0.77603048 3.2080002
-1.0442001 -1.2742268 3.1780002
-1.08052 -1.2742268 3.1780002
-1.6979601 -1.2742268 3.1780002
-1.87272 -0.89507431 3.4680002
-0.9594534 -1.28028 3.1780002
-0.86463243 -1.2679238 3.2080002
-1.8850963 -0.56218386 3.3990002
-0.98366678 -1.28028 3.1780002
-1.644043 -0.26599523 3.3650002
-1.8537619 -1.1055162 3.5390003
-1.7252002 -1.2833067 3.1780002
-1.7342801 -1.3105468 3.1780002
-1.7524401 -1.3166001 3.1780002
-1.7524401 -1.3438401 3.1780002
-1.7827069 -1.3741068 3.1780002
-1.6444687 0.055031434 3.3990002
-1.5205172 0.93270385 3.1490002
-1.3045858 0.014995239 3.1490002
-1.2955887 -0.0059980955 3.1490002
-1.6760906 -0.054480959 3.3650002
-1.2745953 -0.035988573 3.1490002
-1.8855258 -0.56502289 3.3330002
-1.2446048 -0.14695334 3.1490002
-1.3498886 -0.77367717 3.3990002
-1.2446048 -0.17394477 3.1490002
-1.2206124 -0.23092668 3.1490002
-1.2536019 -0.2759124 3.1490002
-1.2206124 -0.29090762 3.1490002
-0.94470006 -0.32089812 3.1490002
-1.3705648 -0.31490001 3.1490002
-1.644043 -0.29163337 3.3650002
-1.190622 -0.35388762 3.1490002
-0.57596666 -1.1145734 3.2690001
-0.86346668 -1.2551105 3.2380002
-1.0436686 -0.36588383 3.1490002
-1.3435733 -0.36588383 3.1490002
-0.93870193 -0.38387811 3.1490002
-1.190622 -0.38387811 3.1490002
-1.7642429 -0.38522002 3.3990002
-1.3745636 -0.3848778 3.1490002
-1.38556 -0.38387811 3.1490002
-1.7381554 -1.1242963 3.5030003
-1.0736592 -0.41386858 3.1490002
-0.89668864 -0.89345145 3.3990002
-1.6444687 0.23631144 3.3990002
-1.1636305 -0.41386858 3.1490002
-0.7431981 -0.95598102 3.2380002
-1.190622 -0.39287525 3.1490002
-1.3465725 -0.40487143 3.1490002
-1.3705648 -0.41386861 3.1490002
-1.505002 -0.92590106 3.4680002
-1.6437144 0.27657145 3.3000002
-0.92670578 -0.42586482 3.1490002
-1.0736592 -0.44385907 3.1490002
-1.1754286 -1.0434287 3.3000002
-1.1636305 -0.44385904 3.1490002
-1.2557029 -1.2495924 3.2080002
-1.3705648 -0.44086 3.1490002
-0.92070764 -0.47384953 3.1490002
-1.0736592 -0.47384953 3.1490002
-1.1636306 -0.47384953 3.1490002
-1.1546334 -0.48284668 3.1490002
-1.0736592 -0.53383052 3.1490002
-1.4961942 -1.0337943 3.4680002
-1.5411 -0.27086002 3.2690001
-1.1036496 -0.53383046 3.1490002
-0.91470957 -0.54282767 3.1490002
-1.0736592 -0.56382096 3.1490002
-0.86431718 -0.73483145 3.3990002
-1.1336401 -0.56382102 3.1490002
-1.435321 -0.95470095 3.4330001
-1.6009763 -1.1257391 3.5390003
-1.1426371 -0.59081239 3.1490002
-1.1156458 -0.62380195 3.1490002
-0.71377337 -0.68378294 3.1490002
-0.73476672 -0.68078387 3.1490002
-0.92582285 -0.89345151 3.3990002
-0.62680101 -0.69577909 3.1490002
-0.53083146 -0.71377337 3.1490002
-0.7107743 -0.71377337 3.1490002
-0.68378294 -0.72277051 3.1490002
-1.4549382 -0.98412669 3.4330001
-1.7658238 -0.26599523 3.3650002
-0.70477617 -0.72576952 3.1490002
-0.54282767 -0.77675337 3.1490002
-0.53083146 -0.82473814 3.1490002
-0.50483978 -0.84473175 3.1490002
-0.51283711 -0.84573144 3.1490002
-0.96415907 -1.2243819 3.5030003
-0.46485239 -1.130641 3.1490002
-0.98409152 -0.92582285 3.3990002
-0.45285621 -1.1426371 3.1490002
-0.41386861 -1.1636306 3.1490002
-1.0448916 -0.5560534 3.2080002
-0.42586482 -1.1936209 3.1490002
-1.3135829 -1.2266105 3.1490002
-1.4125515 -1.2236115 3.1490002
-1.4905268 -1.2236115 3.1490002
-1.6151447 -0.055581905 3.4330001
-0.41386858 -1.2536019 3.1490002
-0.44385904 -1.2536019 3.1490002
-1.7548363 -1.0509001 3.5030003
-0.6357981 -1.256601 3.1490002
-1.4053824 -0.29762223 3.1780002
-0.71377337 -1.2536019 3.1490002
-1.4961942 -0.92149717 3.4680002
-0.80374479 -1.2536019 3.1490002
-1.4810944 -0.92527521 3.4330001
-0.84273237 -1.2536019 3.1490002
-1.2835925 -1.2625991 3.1490002
-1.4352001 0.90331435 3.1200001
-1.4649143 0.90034288 3.1200001
-1.4649143 0.89440006 3.1200001
-0.86550665 -1.2546734 3.2690001
-1.4845287 0.89071721 3.1490002
-1.2835925 0.014995239 3.1490002
-1.0442001 -0.44492003 3.1780002
-1.2865914 -0.0059980955 3.1490002
-1.2242286 -0.074285716 3.1200001
-1.7568572 0.20428573 3.3000002
-1.2212572 -0.11588572 3.1200001
-1.0489143 -0.13965714 3.1200001
-1.0608001 -0.17531429 3.1200001
-1.4923229 -0.62476856 3.3990002
-1.1677715 -0.17531429 3.1200001
-1.1945143 -0.17531429 3.1200001
-1.558001 -1.19102 3.5030003
-1.1677715 -0.18422857 3.1200001
-1.0426691 -0.20493492 3.1490002
-1.0260401 -0.20581335 3.1780002
-1.0637715 -0.20502858 3.1200001
-1.1936209 -0.19493811 3.1490002
-0.95069814 -0.23392573 3.1490002
-1.7099611 -1.1802981 3.4330001
-1.0556648 -0.23692477 3.1490002
-1.0646619 -0.26691526 3.1490002
-1.3435733 -0.29390669 3.1490002
-1.0736592 -0.29690573 3.1490002
-1.0826563 -0.29690573 3.1490002
-1.1648 -0.29417142 3.1200001
-1.585719 -0.085007623 3.4330001
-1.1946206 -0.29490638 3.1490002
-1.0856552 -0.31490001 3.1490002
-1.7340001 -0.71341717 3.4680002
-1.0736592 -0.32389718 3.1490002
-0.93870193 -0.35688668 3.1490002
-1.1350858 -0.35657144 3.1200001
-1.01806 -0.61644 3.2690001
-1.0736592 -0.38387811 3.1490002
-1.1636305 -0.38387811 3.1490002
-0.92411435 -0.38331428 3.1200001
-1.0946524 -0.38387811 3.1490002
-1.1340954 -0.38529524 3.1200004
-0.92670578 -0.41386861 3.1490002
-1.0946524 -0.41086954 3.1490002
-1.6314924 0.094816186 3.4330001
-1.3748429 -0.65377152 3.3650002
-1.1321144 -0.41600001 3.1200001
-1.1156458 -0.44385904 3.1490002
-1.2530401 -0.20884001 3.1780002
-1.1336401 -0.47384953 3.1490002
-1.7650061 -1.1066397 3.5390003
-1.1036496 -0.50384003 3.1490002
-0.89440006 -0.49325716 3.1200001
-0.89671522 -0.55482382 3.1490002
-0.71611434 -0.62697142 3.1200001
-0.68342859 -0.6537143 3.1200001
-1.7694287 -0.028285714 3.3000002
-1.6153344 0.061505716 3.3990002
-0.71377337 -0.65379238 3.1490002
-0.69964951 -0.9257372 3.2080002
-0.65379238 -0.68378288 3.1490002
-0.50514287 -0.71314287 3.1200001
-0.65685147 -1.03616 3.2380002
-0.5068391 -0.73476672 3.1490002
-0.53083146 -0.7437638 3.1490002
-0.53383052 -0.7737543 3.1490002
-0.52664 -0.89286673 3.1780002
-0.53083146 -0.80374479 3.1490002
-0.50384009 -0.83373523 3.1490002
-1.5254401 -1.2258 3.1780002
-0.41386861 -1.1936209 3.1490002
-0.40487143 -1.2236115 3.1490002
-0.38331428 -1.2212572 3.1200001
-1.1366391 -1.2266105 3.1490002
-0.35657144 -1.2539428 3.1200001
-1.3352896 -0.20353144 3.2380002
-0.47384953 -1.256601 3.1490002
-0.50384009 -1.2536019 3.1490002
-0.53383052 -1.2536019 3.1490002
-1.8347373 -0.5840686 3.3330002
-1.8840963 -1.1965191 3.5390003
-0.56382096 -1.2536019 3.1490002
-0.7737543 -1.2536019 3.1490002
-1.1336401 -1.256601 3.1490002
-0.6849333 -1.0741 3.2690001
-1.1936209 -1.256601 3.1490002
-1.2835925 -1.2536019 3.1490002
-1.3135829 -1.2446048 3.1490002
-1.3465725 -1.2536019 3.1490002
-1.376563 -0.25491905 3.1490002
-1.3735639 -1.2536019 3.1490002
-1.4635353 -1.2536019 3.1490002
-1.6134877 -1.2446048 3.1490002
-0.35657144 -1.2658286 3.1200001
-0.98386192 -1.2242191 3.3650002
-0.98381335 -0.50435996 3.2690001
-0.59381145 -1.2655982 3.1490002
-0.6148048 -1.2745953 3.1490002
-0.65379238 -1.2745953 3.1490002
-1.0760829 -1.2221 3.3330002
-0.80635333 -1.2266533 3.2690001
-0.76475722 -1.2625991 3.1490002
-0.89371622 -1.2685972 3.1490002
-0.32685715 -1.2509714 3.1200001
-1.4352001 -1.2628571 3.1200001
-1.124643 -1.2745953 3.1490002
-1.0173943 -1.2557029 3.2080002
-1.1936209 -1.2625991 3.1490002
-0.38628572 -1.2806858 3.1200001
-0.41686764 -1.2745953 3.1490002
-0.86372578 -1.2745953 3.1490002
-0.9536972 -1.2745953 3.1490002
-1.7059743 -0.19422859 3.3990002
-1.6164867 -1.2625991 3.1490002
-0.77482671 -1.2500134 3.1780002
-1.6164572 -1.2925714 3.1200001
-1.854883 -0.43377715 3.3990002
-1.5530238 -0.53947145 3.4330001
-1.7334497 -1.3465725 3.1490002
-1.4046515 0.90698671 3.0920002
-1.4935257 -1.2536019 3.1490002
-1.4399887 0.8687048 3.0920002
-1.2574134 0.0058895242 3.0920002
-1.1985182 -0.055950481 3.0920002
-1.8252144 -1.2221 3.3330002
-1.2560668 -0.14225334 3.1780002
-1.1690705 -0.073619053 3.0920002
-1.1955734 -0.0853981 3.0920002
-1.1955734 -0.11484572 3.0920002
-1.4756801 -1.2343163 3.2080002
-0.7431981 -1.0145733 3.2380002
-1.0748382 -0.14429334 3.0920002
-1.0807277 -0.14429334 3.0920002
-0.96333331 -1.1945335 3.4680002
-1.1040039 -0.92514288 3.2380002
-1.7341267 0.33312669 3.2690001
-1.0436686 -1.2805934 3.1490002
-1.1690705 -0.12662476 3.0920002
-1.1926287 -0.14429334 3.0920002
-1.1643867 -0.95579332 3.2690001
-1.1749601 -0.15018287 3.0920002
-0.71429336 -0.77482671 3.1780002
-1.0748382 -0.17668572 3.0920002
-1.1651442 -0.15214604 3.0920005
-1.1631811 -0.20613334 3.0920002
-1.082691 -0.2345994 3.0920005
-1.1942858 -1.2257143 3.3000002
-0.92760009 -0.26208383 3.0920002
-1.0748382 -0.2650286 3.0920002
-1.1366782 -0.2650286 3.0920002
-1.1543467 -0.25324953 3.0920002
-1.4697715 -1.0205829 3.4680002
-2.0332115 -1.2260572 3.5760002
-1.0748382 -0.28564191 3.0920002
-0.92171055 -0.29447621 3.0920002
-1.1514019 -0.27680764 3.0920002
-0.92171055 -0.31508955 3.0920002
-1.0748382 -0.32392383 3.0920002
-1.1042858 -0.32392383 3.0920002
-1.2560115 -1.2236401 3.3990002
-1.2446048 -1.2805934 3.1490002
-1.1366782 -0.32097906 3.0920002
-1.1036496 -0.44385904 3.1490002
-0.65380001 -1.04608 3.2690001
-1.5226172 -0.71341717 3.4680002
-0.38387811 -1.2536019 3.1490002
-1.1042858 -0.35337144 3.0920002
-1.1042858 -0.36220574 3.0920002
-1.4863963 -0.35463813 3.2380002
-1.8506087 0.041265715 3.3330002
-1.3408134 -0.44492003 3.1780002
-0.62533426 -1.1046515 3.3330002
-0.90404195 -0.41521147 3.0920002
-0.90404195 -0.44465908 3.0920002
-0.86576003 -0.53594673 3.0920002
-0.86281526 -0.5506705 3.0920002
-1.2733533 -0.62578005 3.2690001
-0.49472001 -0.79508579 3.0920002
-0.34453717 -1.2279658 3.0920002
-0.47705144 -1.2574134 3.0920002
-0.87459439 -1.2574134 3.0920002
-0.92480004 -1.1923316 3.4680002
-0.53860664 -1.1643867 3.2690001
-1.6744684 -1.2825928 3.1490002
-1.3545907 -1.2515239 3.0920002
-1.4370439 -1.2544687 3.0920002
-0.53594673 -1.2633029 3.0920002
-1.8537829 -0.66342574 3.3330002
-1.7263086 -0.98412669 3.4330001
-0.62428957 -1.2633029 3.0920002
-0.63485718 -1.1046515 3.3330002
-0.98355055 -1.2662477 3.0920002
-0.41521147 -1.275082 3.0920002
-1.2146144 -1.2625991 3.1490002
-0.56833911 -1.275082 3.0920002
-1.0330763 -0.50574476 3.2380002
-0.65471882 -1.2652662 3.0920005
-0.68612957 -1.275082 3.0920002
-1.7145982 0.17577715 3.2380002
-1.2044077 -1.275082 3.0920002
-1.5253868 -1.275082 3.0920002
-0.59189719 -1.2809715 3.0920002
-0.95410293 -1.2809715 3.0920002
-1.06236 -0.53572005 3.1780002
-0.60238099 -1.1052382 3.3000002
-0.97104859 -0.98412669 3.4330001
-1.0748382 -1.2809715 3.0920002
-1.8807801 -0.62476856 3.3990002
-1.345143 -1.2257143 3.3000002
-1.1985182 -1.2633029 3.0920002
-1.5577791 -1.2809715 3.0920002
-1.8299192 -0.56403816 3.3650002
-1.3757858 -1.1653715 3.3990002
-1.6137297 -1.2868611 3.0920002
-1.634343 -1.2868611 3.0920002
-0.92465532 -1.2809715 3.0920002
-0.55482382 -1.2625991 3.1490002
-1.6402324 -1.3369219 3.0920002
-1.4036038 0.92503619 3.0640001
-1.6447926 -0.87295341 3.5390003
-0.89654672 -1.1965191 3.5390003
-1.4357029 0.90752769 3.0640001
-1.8511429 -1.3168572 3.3000002
-1.3744229 0.89293718 3.0640001
-1.4211124 0.86083817 3.0640001
-1.1730742 -0.084624767 3.0640001
-1.16432 -0.11672382 3.0640001
-1.0767772 -0.14590476 3.0640001
-1.100122 -0.14590476 3.0640001
-1.0947524 -0.8048743 3.2380002
-1.1409752 -0.15465906 3.0640001
-1.0767772 -0.17508572 3.0640001
-1.6131659 -1.2251506 3.2080002
-1.5505915 -1.2009801 3.3990002
-1.8950487 -1.3744658 3.3330002
-0.91336381 -0.23344763 3.0640001
-1.135139 -0.23344763 3.0640001
-1.0738591 -0.26554668 3.0640001
-1.1030401 -0.26554668 3.0640001
-1.4352467 0.05604 3.2690001
-1.0151429 -1.2257143 3.3000002
-1.0135524 -1.2064543 3.4330001
-1.8515859 -1.0642447 3.5030003
-1.6211373 -0.95340759 3.6140001
-1.1263847 -0.2538743 3.0640001
-0.89293712 -0.32682669 3.0640001
-1.8419344 -0.45643717 3.3990002
-0.91336381 -0.30348191 3.0640001
-1.82648 -1.0139772 3.4680002
-0.9016915 -0.34141713 3.0640001
-0.89293718 -0.35308954 3.0640001
-0.88418287 -0.40561527 3.0640001
-1.2266105 -0.16494763 3.1490002
-0.86375624 -0.44355047 3.0640001
-1.0266304 -1.2064543 3.4330001
-0.89001906 -0.43479618 3.0640001
-0.88418287 -0.45522287 3.0640001
-0.86083817 -0.47564954 3.0640001
-1.5808573 -0.35514289 3.3000002
-0.85500193 -0.50483048 3.0640001
-0.80831242 -0.5748648 3.0640001
-0.50483048 -1.254781 3.0640001
-0.62155432 -1.2576991 3.0640001
-0.77329522 -1.2576991 3.0640001
-0.92527521 -1.2162628 3.4330001
-0.88418287 -1.2576991 3.0640001
-0.98923433 -1.2518629 3.0640001
-0.99507058 -1.2518629 3.0640001
-1.1993372 -1.2576991 3.0640001
-1.6889096 0.016023811 3.3650002
-1.2265728 -1.2538084 3.0640001
-0.70379812 -0.6213448 3.0920002
-1.7361172 -0.80103332 3.4330001
-1.283962 -1.2518629 3.0640001
-1.3141155 -1.2538084 3.0640001
-0.86431718 -0.71540856 3.3990002
-1.8451715 -0.41435429 3.3990002
-1.2509714 -0.026742859 3.1200001
-1.7642429 -0.41435429 3.3990002
-1.40944 -1.2576991 3.0640001
-1.4755836 -1.2557538 3.0640001
-0.78404862 -1.0760829 3.3330002
-0.68575239 -1.2752076 3.0640001
-1.6474544 -0.025394287 3.3330002
-0.73536003 -1.2752076 3.0640001
-1.5553448 -1.2752076 3.0640001
-0.55346537 -1.2829894 3.0640001
-0.83165717 -1.28688 3.0640001
-1.6736029 -0.11653715 3.3990002
-0.8666743 -1.283962 3.0640001
-0.92503619 -1.283962 3.0640001
-0.9542172 -1.283962 3.0640001
-0.9863162 -1.283962 3.0640001
-1.0154972 -1.2752076 3.0640001
-1.8549221 -1.1343048 3.5030003
-1.0738591 -1.283962 3.0640001
-1.4940648 -1.2810439 3.0640001
-1.1317581 -0.95289719 3.2380002
-1.5932801 -1.283962 3.0640001
-1.8352878 -0.86644953 3.4680002
-1.26212 -1.26212 3.1780002
-0.6273905 -1.2956344 3.0640001
-0.89196444 -1.2946618 3.0640001
-1.6143086 -0.73563433 3.5760002
-0.97756195 -1.3043886 3.0640001
-1.1640457 -1.243482 3.2080002
-1.100122 -1.2927163 3.0640001
-1.6137067 -1.3131428 3.0640001
-0.88107336 -1.2733533 3.2690001
-1.6458057 -1.3248153 3.0640001
-1.3044639 0.93423909 3.0370002
-1.3449572 0.90531528 3.0370002
-1.3449572 0.89663815 3.0370002
-1.3536344 0.8966381 3.0370002
-1.5313115 -0.95415056 3.5030003
-1.350742 0.86482197 3.0370002
-1.3160334 0.81565142 3.0370002
-1.4567144 -0.83518285 3.3990002
-1.009441 0.80697435 3.0370002
-1.3102486 0.80408192 3.0370002
-1.5543096 0.16664763 3.3650002
-0.99787146 0.66235524 3.0370002
-1.0149467 -1.2546734 3.2690001
-1.0470419 0.62186193 3.0370002
-1.1077819 -0.095448576 3.0370002
-1.3229182 -0.08860191 3.2080002
-1.1048895 -0.14461905 3.0370002
-0.80944288 -0.7459572 3.3330002
-1.0759658 -0.1532962 3.0370002
-1.1135668 -0.16486572 3.0370002
-1.0788581 -0.18511239 3.0370002
-1.1019971 -0.18222001 3.0370002
-1.409301 0.10176571 3.2380002
-0.66240764 -0.63906288 3.0640001
-0.89374572 -0.23428287 3.0370002
-1.5046115 -0.025394287 3.3330002
-0.87060666 -0.28056097 3.0370002
-0.83589816 -0.29502288 3.0370002
-1.2862554 -0.14970668 3.2080002
-0.83300579 -0.38468668 3.0370002
-1.8648866 -1.3947732 3.2690001
-0.85325241 -0.42518002 3.0370002
-0.8243286 -0.50327432 3.0370002
-0.81854385 -0.53509051 3.0370002
-0.79540479 -0.57558382 3.0370002
-0.53509051 -1.2581857 3.0370002
-0.74912673 -1.2581857 3.0370002
-0.98685718 -0.704 3.3000002
-0.77515817 -1.2581857 3.0370002
-1.0748572 -1.2414287 3.3000002
-1.2263696 -1.2552934 3.0370002
-1.1606315 -0.54582667 3.1490002
-1.2552934 -1.2552934 3.0370002
-1.79328 -0.11519334 3.2690001
-1.313141 -1.2552934 3.0370002
-1.23044 -0.63218099 3.2380002
-1.2540001 -0.77314293 3.3000002
-1.4056971 -1.2668629 3.0370002
-0.53509051 -1.2813249 3.0370002
-1.3438401 -0.38438669 3.1780002
-1.5557144 -1.1942858 3.3000002
-1.4389383 -0.78516668 3.3650002
-0.59583056 -1.2842172 3.0370002
-1.6747677 -0.72395337 3.5030003
-0.71441811 -1.2842172 3.0370002
-1.9652002 -1.1130629 3.4680002
-1.9917059 -1.2544076 3.5030003
-0.77805054 -1.2813249 3.0370002
-1.4339714 -0.50266093 3.2380002
-0.86482197 -1.2871096 3.0370002
-0.89663815 -1.2842172 3.0370002
-0.98412669 -1.2129934 3.4330001
-0.83194572 -1.2009801 3.3990002
-0.9255619 -1.2842172 3.0370002
-1.0738591 -1.2956344 3.0640001
-1.1048895 -1.2842172 3.0370002
-1.0748382 -0.23558098 3.0920002
-1.1338134 -1.2842172 3.0370002
-1.7348192 -1.0442277 3.5030003
-0.53692955 -1.2576991 3.0640001
-1.1944823 -1.2276912 3.2690001
-0.83644295 -0.71466196 3.3650002
-1.1656296 -1.2842172 3.0370002
-1.1945535 -1.2842172 3.0370002
-0.77135146 -1.2221 3.3330002
-1.2408315 -1.2813249 3.0370002
-1.434621 -1.2813249 3.0370002
-1.5268315 -0.51106006 3.3330002
-1.5561011 -1.2755401 3.0370002
-1.313201 -1.015384 3.3990002
-0.62475431 -1.2928944 3.0370002
-0.80408192 -1.2928944 3.0370002
-1.1945535 -1.2928944 3.0370002
-1.2350467 -1.2928944 3.0370002
-1.4432982 0.91110003 3.0370002
-0.85325241 -1.3102486 3.0370002
-1.0434287 -0.83600003 3.3000002
-0.98051721 -1.3102486 3.0370002
-1.1048895 -1.3102486 3.0370002
-1.5561011 -1.313141 3.0370002
-1.5821325 -1.3044639 3.0370002
-1.3234446 0.8647778 3.0100002
-1.3234446 0.83802235 3.0100002
-0.80457145 -1.2257143 3.3000002
-1.3129334 0.83706677 3.0100002
-1.2957335 0.80553341 3.0100002
-1.5955276 -0.52639335 3.4330001
-1.0148001 0.80553341 3.0100002
-1.0004667 0.77686673 3.0100002
-1.9138613 -1.1354169 3.5030003
-1.0004667 0.7080667 3.0100002
-1.1052333 -1.1550467 3.2690001
-1.0119333 0.67366672 3.0100002
-0.65280259 -0.80556452 3.2080002
-0.98326671 0.65646672 3.0100002
-1.0148001 0.6536001 3.0100002
-1.0348668 0.65073341 3.0100002
-1.256601 -0.074976198 3.1490002
-1.0148001 0.62493336 3.0100002
-0.85713339 -0.20926668 3.0100002
-1.1425934 -1.0149467 3.2690001
-0.80553341 -0.44433337 3.0100002
-0.79406673 -0.5532667 3.0100002
-0.77113336 -0.57333338 3.0100002
-0.89584959 -1.0135524 3.4330001
-0.47873336 -0.74533343 3.0100002
-0.47586668 -0.75393337 3.0100002
-1.6781039 -0.52378196 3.5030003
-0.38413334 -1.2527335 3.0100002
-1.2565558 -1.2565558 3.0100002
-1.2642001 -1.2556002 3.0100002
-1.4964001 -1.2584668 3.0100002
-0.40706667 -1.2670667 3.0100002
-0.44433337 -1.2842667 3.0100002
-0.65479559 -0.98579109 3.2380004
-0.50453341 -1.2842668 3.0100002
-0.53320003 -1.2842668 3.0100002
-0.86375624 -1.2927163 3.0640001
-0.65264457 -1.2833112 3.0100002
-1.1677715 -0.26445717 3.1200001
-1.7359051 -1.2120955 3.3000002
-0.70233339 -1.2871335 3.0100002
-0.89440006 -1.2871335 3.0100002
-0.9460001 -1.2871335 3.0100002
-1.2858067 -1.2453334 3.2690001
-1.0148001 -1.2842668 3.0100002
-1.1094002 -1.2871335 3.0100002
-1.1352 -1.2814001 3.0100002
-1.1954 -1.2871335 3.0100002
-1.5451335 -1.2842667 3.0100002
-1.4036858 -1.2049905 3.3650002
-0.59626675 -1.2928668 3.0100002
-1.1366782 -0.29447621 3.0920002
-0.60486668 -1.2928668 3.0100002
-0.65376765 -0.92514288 3.2380002
-0.65264457 -1.296689 3.0100002
-1.7034591 -1.3345762 3.1490002
-0.65365338 -1.2810439 3.0640001
-0.77400005 -1.2957335 3.0100002
-0.80553341 -1.2957335 3.0100002
-0.89153337 -1.2957335 3.0100002
-1.8542857 -0.38342857 3.3000002
-1.3960867 -1.0462477 3.4330001
-0.92593342 -1.2957335 3.0100002
-1.9189601 -1.0139772 3.4680002
-0.94313341 -1.2957335 3.0100002
-1.2263696 -1.2928944 3.0370002
-1.3764696 -1.1966457 3.4330001
-1.0148001 -1.2957335 3.0100002
-1.1040039 -0.94056189 3.2380002
-1.4235315 -1.1064571 3.4680002
-1.1094002 -1.2957335 3.0100002
-1.01806 -0.71606672 3.2690001
-1.1954 -1.3043333 3.0100002
-1.3767734 -1.2581857 3.0370002
-1.7933772 -0.56326288 3.3990002
-1.8549221 -1.1643306 3.5030003
-1.6177144 -0.83440006 3.5760002
-1.5241112 -1.2947779 3.0100002
-1.6055858 0.1442143 3.3650002
-1.3744229 0.91628194 3.0640001
-1.2854884 0.90277851 2.9840002
-1.3044344 0.85541338 2.9840002
-1.0031924 0.81562674 2.9840002
-1.2949615 0.83646739 2.9840002
-1.3744229 0.86375624 3.0640001
-1.1606315 -0.53383052 3.1490002
-0.98681903 -1.2612782 3.2380002
-1.284541 0.80710095 2.9840002
-1.6930258 -0.11977429 3.3990002
-1.6722058 -0.77650291 3.5760002
-1.0060344 0.77299821 2.9840002
-1.0145601 0.72468573 2.9840002
-0.98329914 0.71331817 2.9840002
-1.0060344 0.70195049 2.9840002
-1.765543 -0.56562763 3.4330001
-1.0145601 0.67353147 2.9840002
-1.1955334 -0.47518671 3.1780002
-1.2044077 -0.073619053 3.0920002
-1.6009763 -1.1088867 3.5390003
-1.0429791 0.6451124 2.9840002
-1.6760906 0.083323814 3.3650002
-1.3133639 -1.2456344 3.0920002
-0.84404576 -0.21598478 2.9840002
-0.81275904 -0.55533719 3.0370002
-0.81562674 -0.27566478 2.9840002
-0.8099429 -0.28134859 2.9840002
-0.85280007 -0.57348573 3.1200001
-1.9163886 -0.72512001 3.3990002
-0.79857528 -0.32397717 2.9840002
-0.77584004 -0.44333717 2.9840002
-1.7631429 0.2357143 3.3000002
-0.78436577 -0.47459811 2.9840002
-0.77299815 -0.50585908 2.9840002
-0.7928915 -0.50585908 2.9840002
-0.77299815 -0.53427815 2.9840002
-0.42628574 -1.2731733 2.9840002
-1.3435733 -0.44385907 3.1490002
-0.62521911 -1.284541 2.9840002
-1.1955334 -1.2530401 3.1780002
-0.79798579 -1.0159096 3.3650002
-0.65363812 -1.2816991 2.9840002
-0.89520007 -1.284541 2.9840002
-1.4959393 -1.2544687 3.0920002
-1.3563628 -0.87402862 3.3990002
-1.224861 -1.284541 2.9840002
-1.2731733 -1.2816991 2.9840002
-1.0372952 0.70195049 2.9840002
-1.3470631 -1.284541 2.9840002
-1.3754821 -1.284541 2.9840002
-1.8849478 -1.2043649 3.5030003
-1.3953753 -1.284541 2.9840002
-1.4351619 -1.2816991 2.9840002
-1.0143391 -0.41551244 3.2080002
-1.4692649 -1.2703315 2.9840002
-1.6624399 -0.83638287 3.6140001
-1.4920001 -1.2816991 2.9840002
-1.224861 -1.2930667 2.9840002
-1.3754821 -1.2930667 2.9840002
-1.1631811 -0.22380191 3.0920002
-1.466423 -1.2930667 2.9840002
-1.4665201 -0.53010571 3.3330002
-1.3860344 0.9043029 2.9580002
-1.166 -1.0748572 3.3000002
-0.8099429 -0.26998097 2.9840002
-1.7361172 -1.1933762 3.4330001
-1.2648972 0.89585149 2.9580002
-1.0151429 -1.2414287 3.3000002
-1.2818002 0.84232581 2.9580002
-1.0151105 0.83293533 2.9580002
-1.0451601 0.83387434 2.9580002
-1.2564458 0.83387434 2.9580002
-0.50574476 -1.1440934 3.2380002
-1.2818002 0.8366915 2.9580002
-1.0141715 0.80570287 2.9580002
-0.62588894 -1.2852223 3.0100002
-0.86234772 -1.2242162 3.3330002
-1.0141715 0.77471435 2.9580002
-1.1652666 -1.2258 3.1780002
-1.0152258 0.83011341 3.0370002
-1.0451601 0.77471435 2.9580002
-1.0536115 0.77471435 2.9580002
-1.2359933 -0.70361334 3.2690001
-0.32974479 -1.2139277 3.0640001
-1.2451771 0.77471435 2.9580002
-1.0338914 0.74372578 2.9580002
-1.9750991 -1.2133715 3.5390003
-0.95501149 0.71273714 2.9580002
-1.0451601 0.7155543 2.9580002
-1.0141715 0.68456578 2.9580002
-1.1155885 0.67329717 2.9580002
-1.0507944 0.6563943 2.9580002
-0.81697148 -0.23382287 2.9580002
-0.80288571 -0.2619943 2.9580002
-0.87459439 -0.53889149 3.0920002
-0.77471435 -0.29580003 2.9580002
-1.9552915 -0.98425144 3.4680002
-0.79443431 -0.29298288 2.9580002
-0.78598291 -0.35777715 2.9580002
-0.52424765 -1.2242725 3.2380002
-1.8937286 -0.7607286 3.3990002
-1.3735639 -1.2625991 3.1490002
-0.77471435 -0.38313144 2.9580002
-0.78316575 -0.38313144 2.9580002
-1.4058954 -0.95470095 3.4330001
-0.77471435 -0.41693717 2.9580002
-0.74654293 -0.47328001 2.9580002
-0.76344573 -0.46482861 2.9580002
-0.74372578 -0.5239886 2.9580002
-1.585121 0.063663818 3.3990002
-1.4536458 -1.2733487 2.9580002
-1.9196258 -1.31428 3.3990002
-1.9034401 -1.2851458 3.3990002
-0.89345145 -0.71540856 3.3990002
-1.1662972 -1.2818002 2.9580002
-1.2254572 -1.2818002 2.9580002
-1.4258096 0.0052380953 3.3000002
-1.7753514 -1.1345247 3.4330001
-1.2564458 -1.2818002 2.9580002
-1.3953753 -1.2930667 2.9840002
-0.85874289 -0.56754291 3.1200001
-1.4029372 -1.2818002 2.9580002
-1.0167733 0.87431335 2.9330001
-1.0736592 -0.50384009 3.1490002
-1.2262733 0.87431335 2.9330001
-1.2374468 0.88548672 2.9330001
-1.0748572 -0.86428577 3.3000002
-1.0447067 0.8659333 2.9330001
-1.0195667 0.8659333 2.9330001
-1.2346535 0.86593336 2.9330001
-0.95488012 0.71331817 2.9840002
-1.6511096 0.026156191 3.4330001
-1.0661223 0.86500216 2.9330001
-1.04434 -0.88562572 3.3330002
-1.1964779 0.81472224 2.9330001
-0.98386192 -1.2338334 3.3650002
-0.80509341 -1.24396 3.1780002
-1.1743467 -0.59322667 3.1780002
-1.0723886 -0.5652191 3.2080002
-1.22348 0.83520669 2.9330001
-1.6745087 -1.2335238 3.2380002
-0.80604857 -1.0164629 3.3990002
-1.0447067 0.80447996 2.9330001
-1.8451462 0.054480638 3.2380004
-0.75114292 -1.166 3.3000002
-1.1955466 0.80447996 2.9330001
-1.873143 -0.176 3.3000002
-1.2633657 -0.9237172 3.3330002
-1.1648201 0.76258004 2.9330001
-1.1955466 0.77654666 2.9330001
-1.2150999 0.77654666 2.9330001
-1.8807801 -0.38522002 3.3990002
-1.1648201 0.74302661 2.9330001
-1.6458058 -1.3160609 3.0640001
-0.95438898 0.71602452 2.9330001
-1.7252188 -0.38471398 3.4330001
-1.0754334 0.70392001 2.9330001
-0.6851334 -1.2842667 3.0100002
-1.1201267 0.69554001 2.9330001
-0.80553341 -0.50453341 3.0100002
-1.10616 0.68716002 2.9330001
-1.0921932 0.65364003 2.9330001
-1.0363268 0.62850004 2.9330001
-0.80168664 -0.20670667 2.9330001
-0.80447996 -0.21508667 2.9330001
-1.4049201 -0.63124293 3.3990002
-0.77375335 -0.28212667 2.9330001
-0.74302661 -0.35475332 2.9330001
-0.89345145 -0.92582285 3.3990002
-0.77375335 -0.35475332 2.9330001
-0.71788669 -0.41341335 2.9330001
-0.75326896 -0.43482894 2.9330001
-1.3537924 -0.11410096 3.2380002
-0.47518671 -1.2560668 3.1780002
-0.71602452 -0.44786447 2.9330001
-0.7402333 -0.44693333 2.9330001
-1.0442001 -0.47518671 3.1780002
-0.71509337 -0.47486669 2.9330001
-0.73464668 -0.47207332 2.9330001
-1.2056172 -0.32089812 3.1490002
-1.6638916 -0.41111717 3.3990002
-0.46090001 -0.5055933 2.9330001
-0.72347337 -0.52514672 2.9330001
-0.67478573 -1.2745953 3.1490002
-0.68995339 -0.53631997 2.9330001
-1.18618 -0.95579332 3.2690001
-1.8254842 -1.2151731 3.4330001
-0.7123 -0.53631997 2.9330001
-0.71509337 -0.56425333 2.9330001
-1.2851096 -0.98386192 3.3650002
-0.72347337 -0.56425333 2.9330001
-1.16432 -1.283962 3.0640001
-0.72347337 -0.57263333 2.9330001
-1.1457144 -0.77603054 3.2080002
-1.04434 -0.86340576 3.3330002
-1.7042744 -0.74974859 3.4680002
-0.87272292 -0.57281816 3.1490002
-0.68716002 -0.58380669 2.9330001
-1.4855658 -0.08570572 3.3330002
-1.210282 0.86409152 2.9080002
-1.1742783 0.80316198 2.9080002
-1.0745753 0.77546674 2.9080002
-1.5867182 -1.1255029 3.6140001
-1.162277 0.77638996 2.9080005
-1.5446954 0.054480959 3.3650002
-1.0745753 0.66468579 2.9080002
-1.0828838 0.6563772 2.9080002
-0.83631247 -0.56833911 3.0920002
-1.04688 0.63699055 2.9080002
-1.0135524 -1.1639504 3.4330001
-1.0745753 0.65360767 2.9080002
-0.74500197 -0.20494477 2.9080002
-0.81424004 -0.21325335 2.9080002
-0.77269721 -0.22710097 2.9080002
-1.7945714 -0.26085716 3.3000002
-0.75054097 -0.27418289 2.9080002
-0.74500197 -0.34065145 2.9080002
-0.70345914 -0.41542858 2.9080002
-0.80831242 -1.2810439 3.0640001
-0.70253599 -0.44220066 2.9080005
-1.3765715 -1.2351428 3.3000002
-0.70068955 -0.51236194 2.9080002
-1.6055858 0.15062383 3.3650002
-0.71176767 -0.56775242 2.9080002
-0.71176767 -0.57329148 2.9080002
-0.65083814 -0.5843696 2.9080002
-1.0164154 0.87516958 2.9080002
-1.0447067 0.71509337 2.9330001
-1.0441105 0.88347816 2.9080002
-1.0718058 0.88347816 2.9080002
-1.1669285 0.86489999 2.8830001
-1.1964344 0.86409152 2.9080002
-1.1936649 0.83639622 2.9080002
-1.8257486 -0.65066576 3.3990002
-1.0745753 0.80316198 2.9080002
-1.1641233 0.80223882 2.9080005
-1.0967314 0.79485339 2.9080002
-1.8061686 -0.11427429 3.3330002
-0.76161909 -0.25202668 2.9080002
-1.1382744 0.76161909 2.9080002
-1.1336401 -0.53383052 3.1490002
-1.705461 -0.80554384 3.5390003
-1.0856534 0.74500197 2.9080002
-1.1659696 0.74500197 2.9080002
-1.0847303 0.71546042 2.9080005
-1.110579 0.69515055 2.9080002
-1.0741 -0.89664 3.2690001
-1.1614372 0.71663141 2.8830001
-1.0662668 0.71176767 2.9080002
-1.0441105 0.6286819 2.9080002
-0.50453341 -1.2928668 3.0100002
-0.7865448 -0.1966362 2.9080002
-0.71114004 -0.23338571 2.8830001
-0.74500197 -0.2658743 2.9080002
-0.68642861 -0.29653713 2.8830001
-0.71546042 -0.32588065 2.9080005
-0.68684196 -0.41542858 2.9080002
-0.68684196 -0.44312385 2.9080002
-0.68684196 -0.47635812 2.9080002
-0.65256482 -0.50429624 2.8830001
-0.68684196 -0.50405335 2.9080002
-1.34384 0.054480001 3.1780002
-0.65073431 -0.53541428 2.8830001
-0.90374291 -1.2274238 3.3650002
-0.65360767 -0.56498289 2.9080002
-1.0141715 0.74372578 2.9580002
-1.0945886 0.90126574 2.8590002
-1.2564458 0.89585149 2.9580002
-1.0728058 0.88492858 2.8590002
-0.89743531 -1.0709172 3.5030003
-0.98839712 0.86586863 2.8590002
-1.0101801 0.86859149 2.8590002
-0.98485112 -0.47426447 3.2690001
-1.1735516 0.86859149 2.8590002
-1.8410343 -0.10176571 3.2380002
-1.1871657 0.89037436 2.8590002
-0.62533426 -1.1649629 3.3330002
-1.1354315 0.86314577 2.8590002
-1.0755286 0.83591717 2.8590002
-1.1054801 0.83319432 2.8590002
-1.5537896 -1.1661849 3.5390003
-1.6947849 -1.0775896 3.5030003
-1.1517686 0.83319432 2.8590002
-1.3141544 -0.8348372 3.3330002
-1.4390173 -0.38496 3.2080002
-1.1054801 0.77056861 2.8590002
-1.1027572 0.74878573 2.8590002
-1.1272629 0.71066576 2.8590002
-0.8141486 -0.5748648 3.0640001
-1.1045725 0.71248102 2.8590002
-1.7946668 -0.20190001 3.3650002
-1.0755286 0.68888289 2.8590002
-1.0836972 0.68616009 2.8590002
-0.89293718 -0.29472762 3.0640001
-1.7914621 -0.17626192 3.3650002
-0.92760009 -0.22380191 3.0920002
-0.69432861 -0.23144287 2.8590002
-1.0824316 -0.99672568 3.3330002
-0.70522004 -0.26684004 2.8590002
-1.8275267 0.0062266667 3.2690001
-0.85325241 -0.41650289 3.0370002
-1.8289857 -0.7445429 3.3990002
-0.68616009 -0.28045431 2.8590002
-0.65620863 -0.31312859 2.8590002
-0.68343723 -0.35397145 2.8590002
-0.82901716 -1.1659087 3.4680002
-0.98693913 0.7258839 2.9580002
-1.8410343 -0.06476 3.2380002
-0.44382575 -0.47377717 2.8590002
-0.62625718 -0.53368008 2.8590002
-0.62353432 -0.55273998 2.8590002
-0.44086 -1.2745953 3.1490002
-1.3427953 -0.80439526 3.3650002
-0.83372861 -1.0462477 3.4330001
-1.4046515 0.94526869 3.0920002
-1.3784629 0.043173335 3.2380002
-0.60175145 -0.58541435 2.8590002
-1.675143 0.176 3.3000002
-0.11708286 -1.2143945 2.8590002
-1.8299192 -0.58006197 3.3650002
-1.0125 0.8775 2.835
-1.0503 0.87479997 2.835
-1.1664 0.8829 2.835
-1.0166773 -1.2745953 3.1490002
-0.77490002 -0.1917 2.835
-1.2633029 0.0058895242 3.0920002
-0.6851334 -1.2957335 3.0100002
-0.66149998 -0.26459998 2.835
-1.2862554 -0.16498287 3.2080002
-0.3915 -0.3105 2.835
-0.79253906 -0.65376765 3.2380002
-0.80604857 -1.1686087 3.3990002
-0.73619056 -1.275082 3.0920002
-1.0760829 -0.99672568 3.3330002
-0.38609999 -0.3213 2.835
-1.6814592 -1.3398668 3.0920002
-0.6534 -0.324 2.835
-0.66419995 -0.324 2.835
-1.5028 -1.0139772 3.4680002
-0.9861334 0.81126672 3.0100002
-1.1220001 -1.1094285 3.3000002
-0.4077 -0.35370001 2.835
-0.54282767 -0.78275144 3.1490002
-0.62909997 -0.35370001 2.835
-1.8352878 -0.80699819 3.4680002
-0.62730002 -0.38250002 2.835
-0.62639999 -0.41580001 2.835
-0.68402672 -0.80509341 3.1780002
-0.63450003 -0.41580001 2.835
-1.3106972 -1.2373716 3.2080002
-1.2818002 0.91557145 2.9580002
-0.44549999 -0.4725 2.835
-1.3468667 -0.51150668 3.1780002
-0.45089999 -0.4752 2.835
-0.62370002 -0.46169999 2.835
-0.59399998 -0.50490004 2.835
-1.3437743 -1.105099 3.4330001
-0.61289996 -0.50490004 2.835
-1.6455895 -0.83845049 3.6530001
-0.60210001 -0.53460002 2.835
-0.60210001 -0.54269999 2.835
-0.4725 -0.5697 2.835
-0.59130001 -0.56700003 2.835
-0.1107 -1.1961 2.835
-0.12419999 -1.1961 2.835
-0.053999998 -1.215 2.835
-0.064800002 -1.215 2.835
-1.723039 -0.99066567 3.4330001
-0.77403623 -0.71544385 3.2380002
-0.1107 -1.215 2.835
-1.1033752 0.88377148 2.812
-1.6153344 0.19099145 3.3990002
-1.1248 0.88109332 2.812
-1.0846286 0.68559241 2.812
-0.80075049 -0.18478857 2.812
-1.8145858 -0.50350666 3.4330001
-0.6507771 -0.20621334 2.812
-0.82362384 -0.83323812 3.3650002
-0.6507771 -0.23299427 2.812
-0.41510478 -0.26513141 2.812
-0.43385142 -0.24370666 2.812
-0.61132002 -1.2733487 2.9580002
-0.41510478 -0.29459047 2.812
-0.62578166 -0.29369777 2.812
-0.38832378 -0.31601524 2.812
-0.41510478 -0.32672763 2.812
-1.1042858 -0.29447621 3.0920002
-0.68309999 -0.22410001 2.835
-0.43117332 -0.32672763 2.812
-0.59453714 -0.32672763 2.812
-0.61506927 -0.32583493 2.812
-1.7042744 0.29395428 3.4680002
-1.3784629 0.070927627 3.2380002
-0.43385142 -0.3508305 2.812
-1.0453905 -1.275082 3.0920002
-0.59453714 -0.35350859 2.812
-0.43385142 -0.37761143 2.812
-0.5936445 -0.38653839 2.812
-0.45527619 -0.41510478 2.812
-1.4664258 -0.7445429 3.3990002
-0.59453714 -0.41510478 2.812
-1.5853715 -1.1956344 3.4680002
-1.6751268 -0.92351055 3.5390003
-0.60257143 -0.41510478 2.812
-0.60257143 -0.42046097 2.812
-1.2536019 -0.053982861 3.1490002
-0.47402287 -0.43385142 2.812
-0.47402287 -0.47402287 2.812
-0.59185904 -0.47670096 2.812
