# .PCD v0.7 - Point Cloud Data file format
VERSION 0.7
FIELDS x y z intensity
SIZE 4 4 4 4
TYPE F F F F
COUNT 1 1 1 1
WIDTH 1228
HEIGHT 1
VIEWPOINT 0 0 0 1 0 0 0
POINTS 1228
DATA ascii
0.18677543 -0.18031374 0.67860001 10
0.19502059 -0.18120952 0.67760003 10
0.20505874 -0.18189874 0.67557144 10
0.15740737 -0.17303713 0.67863637 10
0.16501504 -0.17358252 0.67756003 10
0.17429368 -0.17606351 0.67899996 10
0.18550204 -0.17423208 0.67811781 10
0.19483019 -0.17531489 0.67706555 10
0.204312 -0.17603528 0.67650032 10
0.21052572 -0.17704763 0.67600006 10
0.18327619 -0.18068571 0.68000001 10
0.12609021 -0.17095552 0.68700004 10
0.13382763 -0.17095762 0.68383336 10
0.14565633 -0.1717813 0.68245012 10
0.153806 -0.17169768 0.68095845 10
0.16572335 -0.17090523 0.68016666 10
0.17575577 -0.17344344 0.68043268 10
0.18208061 -0.17540516 0.67999995 10
0.19525714 -0.17048572 0.67999995 10
0.2051743 -0.17113873 0.68066669 10
0.21102668 -0.17117333 0.68600005 10
0.097484872 -0.16388233 0.68800008 10
0.1049331 -0.16339985 0.68720007 10
0.11537628 -0.16423555 0.68647397 10
0.12498395 -0.16555285 0.68708175 10
0.13483433 -0.16594552 0.68567747 10
0.14464007 -0.1664966 0.68500018 10
0.15490063 -0.16631238 0.68454725 10
0.1654627 -0.16597368 0.68472719 10
0.17445023 -0.16629291 0.68476945 10
0.18525447 -0.16720706 0.68565124 10
0.19483849 -0.16657688 0.68583333 10
0.20501079 -0.16779287 0.68555278 10
0.21173835 -0.16657546 0.68725008 10
0.1015619 -0.15922287 0.68800008 10
0.069299996 -0.16104001 0.69300002 10
0.076055862 -0.16169013 0.69229406 10
0.085144907 -0.16251634 0.69175994 10
0.094108425 -0.16284405 0.69024014 10
0.1255143 -0.16100001 0.69000012 10
0.13580287 -0.16136986 0.69033343 10
0.14547038 -0.16201344 0.69085729 10
0.15516362 -0.16195865 0.69066679 10
0.16350277 -0.16178982 0.69169998 10
0.17699657 -0.16200042 0.69053334 10
0.18457796 -0.16224012 0.69109386 10
0.19525903 -0.16149387 0.69185728 10
0.20537233 -0.16287239 0.69254065 10
0.21168402 -0.16238648 0.69200003 10
0.016860779 -0.15174702 0.69800001 10
0.025631767 -0.15256341 0.69778574 10
0.035218731 -0.15283133 0.69542426 10
0.045370702 -0.15400253 0.6960398 10
0.055220503 -0.15498561 0.69585443 10
0.06494765 -0.15500504 0.69429857 10
0.074898735 -0.15576193 0.69403541 10
0.085092567 -0.15508826 0.69468284 10
0.094845876 -0.15527296 0.69305784 10
0.10500707 -0.1553618 0.69403285 10
0.11507574 -0.15645169 0.6947819 10
0.12492067 -0.15607436 0.69449228 10
0.13457043 -0.1565253 0.69431388 10
0.14510676 -0.15644924 0.69516093 10
0.1551636 -0.15698424 0.69478744 10
0.16520119 -0.15692936 0.69528902 10
0.17440951 -0.15743157 0.69381577 10
0.18515785 -0.15790673 0.69619364 10
0.19484195 -0.15843259 0.69652009 10
0.20512764 -0.1574651 0.69716209 10
0.21178456 -0.15708156 0.69678581 10
-0.0039885715 -0.14624763 0.69800001 10
0.0099714287 -0.14757714 0.69800001 10
0.015289524 -0.14757714 0.69800007 10
0.024594242 -0.1482926 0.69795454 10
0.035558045 -0.14828059 0.69752634 10
0.044688515 -0.14868593 0.69788235 10
0.052250292 -0.14903961 0.69800001 10
0.06514667 -0.14957143 0.69800001 10
0.071794286 -0.14957143 0.69800001 10
0.087083809 -0.14957143 0.69800001 10
0.094396196 -0.14957143 0.69800007 10
-0.00066666672 -0.15000001 0.70000005 10
0.0051177782 -0.15077098 0.70100015 10
0.011333334 -0.15155558 0.70000005 10
0.057333335 -0.15000001 0.70000005 10
0.076943815 -0.15121859 0.70050001 10
0.081666671 -0.15033334 0.70000005 10
0.099333346 -0.15000001 0.70000005 10
0.10551268 -0.15046428 0.70029992 10
0.11474272 -0.15122013 0.70110536 10
0.12489457 -0.15094261 0.70128578 10
0.13574421 -0.15157954 0.70086366 10
0.14425133 -0.15144743 0.70122224 10
0.15476003 -0.15199123 0.70128578 10
0.16504835 -0.15168197 0.70162964 10
0.17491153 -0.15277676 0.70209688 10
0.18491566 -0.15310977 0.70297509 10
0.1951064 -0.15321608 0.70352966 10
0.2048746 -0.15232849 0.70300019 10
0.21294402 -0.152705 0.70188892 10
-0.060011428 -0.14092572 0.708 10
-0.05376095 -0.14093705 0.70655555 10
-0.044604711 -0.14165933 0.70605558 10
-0.03459518 -0.14227137 0.70443773 10
-0.024768654 -0.14275695 0.70280015 10
-0.014427934 -0.14436479 0.70340371 10
-0.0047367588 -0.14429776 0.70248073 10
0.004679251 -0.14436755 0.70182174 10
0.014608409 -0.1426267 0.70263433 10
0.025030632 -0.14345835 0.70323265 10
0.034631912 -0.14360417 0.70327437 10
0.045013033 -0.14384422 0.70281279 10
0.054759733 -0.14476876 0.70332158 10
0.064970814 -0.14491834 0.70457882 10
0.074762203 -0.145376 0.70382148 10
0.085003287 -0.1449714 0.70399994 10
0.094482332 -0.14547758 0.70359612 10
0.10518496 -0.1462345 0.70595741 10
0.1149086 -0.14687255 0.7051751 10
0.12524781 -0.14691949 0.70558983 10
0.13454801 -0.1467732 0.70526332 10
0.14511122 -0.1476393 0.70579422 10
0.15502869 -0.14780156 0.70650017 10
0.165297 -0.14844969 0.70755011 10
0.17468701 -0.1481649 0.70673341 10
0.18479116 -0.14878917 0.70727783 10
0.19396953 -0.14879239 0.70800006 10
0.20434159 -0.14932509 0.70733333 10
0.21325956 -0.14888228 0.70638466 10
-0.063127086 -0.13581043 0.70800012 10
-0.055040449 -0.13684529 0.70782369 10
-0.045127209 -0.13740054 0.70721442 10
-0.034977082 -0.13721234 0.70625001 10
-0.024897045 -0.1374601 0.70653588 10
-0.015007826 -0.13790195 0.70634383 10
-0.0048671961 -0.13829079 0.70755559 10
0.0048908493 -0.13785706 0.70730442 10
0.014269714 -0.13826248 0.70679992 10
0.025130192 -0.1381781 0.70739996 10
0.035337552 -0.13787778 0.70726931 10
0.043725654 -0.13816719 0.7076875 10
0.050571427 -0.13957714 0.708 10
0.23262857 -0.041131429 0.70800006 10
0.23128 -0.039782856 0.708 10
0.058152385 -0.14132382 0.71000004 10
0.060857143 -0.14132382 0.71000004 10
0.076463334 -0.14074619 0.71050006 10
0.084353685 -0.14058866 0.71063638 10
0.096696712 -0.14131577 0.71153861 10
0.10486206 -0.14134777 0.71084225 10
0.11512952 -0.14213745 0.71192008 10
0.12466201 -0.14220057 0.71206897 10
0.13536587 -0.14223886 0.71133345 10
0.14480866 -0.14271289 0.71142429 10
0.15490487 -0.143052 0.71208817 10
0.16514578 -0.14347704 0.71195644 10
0.17515483 -0.14305484 0.7117058 10
0.18480285 -0.14407915 0.71256822 10
0.1949472 -0.14470764 0.7127499 10
0.2052034 -0.14490253 0.7142455 10
0.21414423 -0.14398555 0.71497852 10
-0.11245128 -0.13172558 0.71416676 10
-0.10505895 -0.13241442 0.71422225 10
-0.09513858 -0.13238144 0.7110002 10
-0.084918432 -0.13365182 0.71067464 10
-0.074897133 -0.13432555 0.71015191 10
-0.066152379 -0.13429432 0.71005857 10
-0.054160304 -0.13226214 0.71086377 10
-0.045069911 -0.13281323 0.71200007 10
-0.034910731 -0.1328703 0.71133339 10
-0.024742516 -0.1327285 0.71272719 10
-0.01513245 -0.13291205 0.71292847 10
-0.0046890788 -0.13334151 0.71251094 10
0.0046487623 -0.13286053 0.71269995 10
0.015146525 -0.13342947 0.71288437 10
0.025058098 -0.13334197 0.71379048 10
0.034618467 -0.13333373 0.71407318 10
0.045981206 -0.13472395 0.71441448 10
0.055087395 -0.13573857 0.71314538 10
0.064829752 -0.13610761 0.71323711 10
0.074933723 -0.13588417 0.71408159 10
0.08490622 -0.13654467 0.71499985 10
0.094940528 -0.13662517 0.71560872 10
0.10534701 -0.13579002 0.71550012 10
0.11472318 -0.13690351 0.71677774 10
0.12521121 -0.13829371 0.71723074 10
0.13493213 -0.13753539 0.71654534 10
0.14552352 -0.13784221 0.71713781 10
0.15461317 -0.13755935 0.71699983 10
0.16516005 -0.13877827 0.71752167 10
0.17484917 -0.13836175 0.71752179 10
0.18484877 -0.13890989 0.71779996 10
0.19439167 -0.13919108 0.71775001 10
0.20281938 -0.13944179 0.7181111 10
0.21638477 -0.13900667 0.71900004 10
-0.15350059 -0.12164972 0.71759999 10
-0.14483137 -0.12302496 0.7187857 10
-0.13451283 -0.12418258 0.71712154 10
-0.12451986 -0.12448443 0.7152766 10
-0.11494908 -0.12516905 0.71478939 10
-0.10517824 -0.1252674 0.71547461 10
-0.095156319 -0.12573914 0.71412718 10
-0.084882669 -0.12639521 0.71357155 10
-0.074930899 -0.12669747 0.71526086 10
-0.064813405 -0.12642434 0.71506518 10
-0.055277102 -0.12701166 0.71656078 10
-0.045233991 -0.12705754 0.7159999 10
-0.03477655 -0.12751122 0.71599972 10
-0.026322166 -0.12808026 0.7170909 10
-0.014228116 -0.12813929 0.71717393 10
-0.0055101961 -0.12812297 0.71805876 10
0.0056306962 -0.12859978 0.71853846 10
0.013772383 -0.12843226 0.71785712 10
0.028760001 -0.12942 0.71900004 10
0.032183811 -0.12942001 0.71900004 10
-0.15401049 -0.11870966 0.7187143 10
-0.14578582 -0.11866925 0.71899992 10
-0.13530897 -0.11928554 0.71899998 10
-0.12347611 -0.11887126 0.71845454 10
-0.11613376 -0.11841374 0.71777773 10
-0.10819238 -0.11983334 0.71900004 10
0.22939526 -0.052726671 0.71900004 10
0.23166406 -0.052033335 0.71650004 10
0.18830954 -0.040400952 0.71900004 10
0.19292383 -0.040819999 0.71833342 10
0.20637481 -0.041809339 0.71742851 10
0.21479419 -0.044275075 0.71608132 10
0.22491813 -0.044896346 0.71541268 10
0.23204502 -0.045574568 0.71329182 10
0.16744393 -0.031268455 0.71762508 10
0.17393494 -0.032496013 0.71831244 10
0.18602601 -0.035248853 0.71745825 10
0.19466852 -0.036607869 0.71735466 10
0.20439462 -0.037390362 0.71587986 10
0.21463129 -0.038156193 0.71542859 10
0.22432899 -0.03881323 0.71500009 10
0.23058097 -0.03989524 0.71000004 10
0.15681048 -0.028896956 0.71900004 10
0.16213684 -0.029417461 0.71833342 10
0.21462858 -0.14057143 0.72000003 10
0.039085716 -0.13097143 0.72000003 10
0.043809526 -0.13127621 0.72000009 10
0.054857142 -0.13097143 0.72000003 10
0.066110589 -0.13107187 0.7205556 10
0.074634664 -0.13157487 0.72100019 10
0.085540667 -0.13196257 0.72168195 10
0.094835073 -0.13160685 0.72317392 10
0.10448031 -0.13104372 0.72200006 10
0.11571215 -0.13179836 0.72226095 10
0.12490845 -0.13325758 0.72233331 10
0.13518795 -0.13247497 0.72233331 10
0.14447428 -0.13301322 0.72109371 10
0.15551609 -0.1326495 0.72241932 10
0.16505773 -0.13341779 0.7221362 10
0.17503028 -0.13313432 0.72227502 10
0.18488681 -0.13435264 0.72312188 10
0.19518615 -0.13435125 0.72397768 10
0.20501889 -0.13487174 0.72425479 10
0.21480252 -0.13486934 0.72389305 10
0.22117335 -0.13381335 0.72800004 10
-0.16576912 -0.12102244 0.72155559 10
-0.15977144 -0.12137143 0.72000003 10
-0.14400002 -0.12548572 0.72000003 10
-0.09338361 -0.12096982 0.72138476 10
-0.08466468 -0.12175459 0.72121751 10
-0.07492853 -0.1216743 0.72180969 10
-0.065132983 -0.12160219 0.72310531 10
-0.054883376 -0.12198229 0.72262514 10
-0.044455513 -0.1223376 0.72370851 10
-0.03511354 -0.12254983 0.72292858 10
-0.025045944 -0.12343732 0.72235137 10
-0.015367598 -0.12336452 0.72197664 10
-0.0044948962 -0.12349495 0.72174352 10
0.0045637442 -0.12402414 0.72267437 10
0.015132423 -0.124442 0.72369552 10
0.025028558 -0.12520501 0.72446549 10
0.035174344 -0.12561627 0.72420406 10
0.044949539 -0.125723 0.72487277 10
0.054545503 -0.12630305 0.72533971 10
0.065140598 -0.12684779 0.72560883 10
0.075032987 -0.12664112 0.72522736 10
0.084725246 -0.12800977 0.72596163 10
0.094803527 -0.12755631 0.72700018 10
0.10451879 -0.12707151 0.72646677 10
0.11416616 -0.12828813 0.72695011 10
0.12564102 -0.12827368 0.72765011 10
0.13492702 -0.12827367 0.72764993 10
0.14475271 -0.12937137 0.72540015 10
0.15327176 -0.12975556 0.72600001 10
0.16469328 -0.12907891 0.72776932 10
0.17592911 -0.12897101 0.72700012 10
0.18133938 -0.12913176 0.72766674 10
0.19690669 -0.12965333 0.72800004 10
0.21704385 -0.12907302 0.72733343 10
-0.16455333 -0.1146021 0.72249091 10
-0.15515368 -0.11382179 0.72280008 10
-0.14465979 -0.11361289 0.72455317 10
-0.13530667 -0.11485241 0.72448987 10
-0.12591673 -0.11560855 0.72380555 10
-0.114655 -0.11521975 0.72424996 10
-0.10460388 -0.11575118 0.72374558 10
-0.094971158 -0.11589764 0.72573483 10
-0.085408196 -0.11623346 0.72585005 10
-0.075070038 -0.11765879 0.72673327 10
-0.065171994 -0.11897189 0.72752953 10
-0.05549464 -0.11936756 0.72754556 10
-0.044759333 -0.1194483 0.72750014 10
-0.038466431 -0.11955881 0.72775 10
-0.024137 -0.1192866 0.72723085 10
-0.014626608 -0.11881825 0.72693753 10
-0.0051627108 -0.11906585 0.72653854 10
0.0048522456 -0.11989959 0.72771442 10
0.010400001 -0.11994667 0.72800004 10
0.046453338 -0.11994667 0.7280001 10
0.050613336 -0.11994667 0.72800004 10
-0.16394185 -0.1083491 0.72800016 10
-0.15697013 -0.10902965 0.72687507 10
-0.14282668 -0.10885334 0.72800004 10
0.22540991 -0.060858101 0.72780013 10
0.19599999 -0.051573344 0.7280001 10
0.20598505 -0.052894793 0.72693348 10
0.21507943 -0.05379314 0.72404164 10
0.2246538 -0.054918729 0.72293329 10
0.2312178 -0.057234295 0.7240001 10
0.15715557 -0.041368891 0.7280001 10
0.16500726 -0.042588465 0.72625005 10
0.17523283 -0.043435976 0.72508103 10
0.18520175 -0.044552587 0.72491306 10
0.19523844 -0.045452617 0.72452384 10
0.20400856 -0.046173085 0.72247499 10
0.21097144 -0.048228573 0.72000003 10
0.11856001 -0.031200003 0.72800004 10
0.12612064 -0.03254351 0.72700012 10
0.13561223 -0.033572782 0.72508341 10
0.14494215 -0.034461502 0.72357148 10
0.15501326 -0.03519661 0.72388905 10
0.16475719 -0.03574124 0.72191471 10
0.17537303 -0.03675124 0.72079998 10
0.18316081 -0.037259836 0.72150016 10
0.088400006 -0.020453334 0.72800004 10
0.095457345 -0.022390021 0.72758633 10
0.10465473 -0.024065595 0.72723085 10
0.11493766 -0.025794029 0.72702086 10
0.12494265 -0.026741004 0.72378945 10
0.13497695 -0.027679013 0.72220695 10
0.14488135 -0.028261146 0.72200006 10
0.1525043 -0.028991431 0.72050011 10
0.07557334 -0.015946668 0.72800004 10
0.086944006 -0.018442668 0.7280001 10
0.092841908 -0.018707145 0.72750008 10
0.1550381 -0.13000953 0.73000002 10
0.18736355 -0.13070723 0.73057145 10
0.19337441 -0.13042393 0.73037499 10
0.20559038 -0.13033831 0.73011112 10
0.21413332 -0.13000953 0.73000002 10
0.22193286 -0.13079381 0.73049998 10
-0.03337143 -0.12027619 0.73000002 10
0.015299525 -0.12030365 0.73016667 10
0.025048215 -0.12037917 0.73062503 10
0.036220521 -0.1207968 0.73009092 10
0.041482545 -0.12073968 0.73000002 10
0.056484334 -0.12112468 0.73054552 10
0.064586431 -0.12185357 0.73155004 10
0.075150639 -0.12174143 0.73138887 10
0.08500208 -0.12321734 0.73194122 10
0.095182545 -0.12279852 0.73184383 10
0.10520361 -0.12252013 0.73192298 10
0.11535513 -0.12375358 0.73197365 10
0.12474354 -0.12375806 0.73283762 10
0.13531783 -0.12333938 0.73423254 10
0.1452212 -0.12409241 0.73441166 10
0.15491351 -0.12511827 0.73477364 10
0.16497976 -0.12410515 0.73433346 10
0.17487563 -0.12419285 0.73454541 10
0.18501677 -0.12476763 0.73512256 10
0.19531088 -0.12538855 0.73557997 10
0.20482589 -0.12513025 0.73596174 10
0.21457969 -0.12571073 0.73508894 10
0.22180654 -0.12563951 0.73576927 10
-0.13226905 -0.11106428 0.73000002 10
-0.12438611 -0.11148845 0.73073328 10
-0.11477 -0.11129218 0.73035705 10
-0.10586529 -0.11096964 0.7307778 10
-0.095565997 -0.11114448 0.73030001 10
-0.084140792 -0.11175074 0.73083329 10
-0.074754931 -0.11304201 0.73138702 10
-0.064651638 -0.11364438 0.7326957 10
-0.055054136 -0.11424056 0.73388463 10
-0.045275651 -0.11419207 0.73387259 10
-0.034908418 -0.11468286 0.73484725 10
-0.024811363 -0.1143396 0.73407567 10
-0.014474929 -0.11432141 0.73523271 10
-0.0048120189 -0.11410162 0.73433989 10
0.004822121 -0.11511751 0.73533964 10
0.014569488 -0.11496434 0.73496306 10
0.024637887 -0.11569688 0.73577994 10
0.034753051 -0.11573275 0.73457998 10
0.045326475 -0.11600356 0.73432553 10
0.055445623 -0.11569573 0.7357502 10
0.065025114 -0.11656312 0.73500007 10
0.07481534 -0.11677197 0.73631579 10
0.08509472 -0.11695084 0.73678392 10
0.09456107 -0.11741858 0.73615146 10
0.1045453 -0.11808519 0.7375201 10
0.11505008 -0.11816621 0.73644435 10
0.12482558 -0.11795617 0.73740739 10
0.13377869 -0.11785551 0.73868436 10
0.14498475 -0.11800541 0.73900014 10
0.15131906 -0.11894382 0.73900002 10
0.16609904 -0.11894382 0.73900002 10
-0.16477664 -0.103653 0.73348826 10
-0.15483518 -0.10472196 0.73415089 10
-0.14503714 -0.10461972 0.73477787 10
-0.13485903 -0.10497681 0.73459989 10
-0.12513033 -0.10558445 0.73578447 10
-0.11523888 -0.10640153 0.7348333 10
-0.10521138 -0.10731011 0.73505861 10
-0.095254794 -0.10785621 0.73542875 10
-0.085162997 -0.10800584 0.73580009 10
-0.075177565 -0.1077624 0.73636669 10
-0.066000514 -0.10807108 0.73770595 10
-0.056108814 -0.10887761 0.73874998 10
-0.046451431 -0.10909047 0.73900002 10
-0.034486674 -0.10909048 0.73900002 10
-0.011260953 -0.10909048 0.73900002 10
-0.0049266675 -0.10909047 0.73900002 10
-0.164635 -0.09849976 0.73874998 10
-0.15906096 -0.099237144 0.73900002 10
-0.14287333 -0.099237144 0.73900002 10
0.20903143 -0.07108476 0.73900002 10
0.21532845 -0.071072742 0.73887497 10
0.2248168 -0.071698345 0.73872727 10
0.1870762 -0.061621774 0.73885715 10
0.19586557 -0.063277513 0.73766679 10
0.20529291 -0.064749733 0.73612243 10
0.21521141 -0.065290272 0.73550969 10
0.22448902 -0.065643638 0.73432517 10
0.23166913 -0.063448444 0.73428577 10
0.13794667 -0.051378097 0.73900002 10
0.14448173 -0.052461315 0.73883343 10
0.15608241 -0.052966937 0.73680967 10
0.16545869 -0.054311443 0.73609298 10
0.17529353 -0.054921638 0.734326 10
0.18516836 -0.05520976 0.73369801 10
0.19458172 -0.056187581 0.73257887 10
0.20368093 -0.057125647 0.73146141 10
0.21408921 -0.058795232 0.73011112 10
0.10838667 -0.040117145 0.73900002 10
0.11539188 -0.041250478 0.73852944 10
0.12555134 -0.043468025 0.73734492 10
0.13504359 -0.045560416 0.73586816 10
0.14491795 -0.045448374 0.73408157 10
0.15447412 -0.045818474 0.73256242 10
0.16448562 -0.047671609 0.73111528 10
0.1742041 -0.048443753 0.73056245 10
0.18358526 -0.04937318 0.73016667 10
0.076430477 -0.030892471 0.73872727 10
0.085282356 -0.032902192 0.7378487 10
0.095031962 -0.033721652 0.73648894 10
0.10512263 -0.035049159 0.73588651 10
0.11493801 -0.035342082 0.73351163 10
0.1243595 -0.037048113 0.73221195 10
0.13443868 -0.038542382 0.73180002 10
0.14530477 -0.039628573 0.73000008 10
0.046522114 -0.020720212 0.73888886 10
0.056654315 -0.022955071 0.7383216 10
0.065320164 -0.024469592 0.73652112 10
0.074868917 -0.024498513 0.73471457 10
0.084623843 -0.024594553 0.73267996 10
0.094446547 -0.027285388 0.73130417 10
0.10414667 -0.029152825 0.7301538 10
0.11193334 -0.029895239 0.73000002 10
0.017211342 -0.011836797 0.73900002 10
0.024844358 -0.013398968 0.73817164 10
0.034865681 -0.014299883 0.73610204 10
0.04501136 -0.01552731 0.73506516 10
0.055061128 -0.016150143 0.73347044 10
0.064688146 -0.016814003 0.73211128 10
0.07430616 -0.017616339 0.73063153 10
0.082383811 -0.018186532 0.73042864 10
-0.0025806352 -0.00516127 0.73900002 10
0.0049266666 -0.0063342857 0.73900008 10
0.014488989 -0.0079919649 0.73768753 10
0.023726763 -0.0087054297 0.73710006 10
0.03079905 -0.0091000004 0.73500001 10
0.15666857 -0.12067715 0.74100006 10
0.16090286 -0.12067715 0.74100006 10
0.18842572 -0.12067716 0.74100006 10
0.19306329 -0.12128206 0.74100012 10
0.20642145 -0.12067715 0.74100006 10
0.21600042 -0.12136023 0.74158335 10
0.22330745 -0.12165429 0.74122232 10
-0.016937144 -0.11079714 0.74100006 10
0.0063514295 -0.11079715 0.74100006 10
0.018348573 -0.11079714 0.74100006 10
0.024700003 -0.11079715 0.74100012 10
0.035442002 -0.11126544 0.74130011 10
0.045067728 -0.11136266 0.74322242 10
0.053783953 -0.11091308 0.74314302 10
0.065572053 -0.1120525 0.74217647 10
0.075052805 -0.11182744 0.74488002 10
0.084705792 -0.11177696 0.74385726 10
0.095372327 -0.11221622 0.74326676 10
0.10510018 -0.1128884 0.74397212 10
0.11448465 -0.11356258 0.74529415 10
0.12498484 -0.11285049 0.74417645 10
0.1348334 -0.11321534 0.7436856 10
0.14488228 -0.1134049 0.7447632 10
0.15508825 -0.11519098 0.7451458 10
0.16432914 -0.11548489 0.74397564 10
0.17512992 -0.11558902 0.74484313 10
0.18493199 -0.11520492 0.74551922 10
0.1950314 -0.1162531 0.74515218 10
0.20528327 -0.11569449 0.74552095 10
0.21518809 -0.11591775 0.74634796 10
0.22283107 -0.11573504 0.74620694 10
-0.15384573 -0.10091715 0.74100006 10
-0.1235 -0.10091715 0.74100012 10
-0.11484168 -0.10184598 0.7416001 10
-0.10512773 -0.10224828 0.74309671 10
-0.095589258 -0.10298599 0.74236691 10
-0.085129552 -0.10266199 0.74372971 10
-0.074796386 -0.10258127 0.74412113 10
-0.06479311 -0.10341447 0.74452382 10
-0.054614253 -0.10409316 0.74317992 10
-0.044486411 -0.10434246 0.74378425 10
-0.034733497 -0.10461675 0.74428284 10
-0.024816278 -0.10492528 0.74448222 10
-0.015110279 -0.10522565 0.74366665 10
-0.0049663759 -0.10427615 0.7448982 10
0.0048258454 -0.10542831 0.74458808 10
0.014646687 -0.10634795 0.74553496 10
0.024816984 -0.10635709 0.74454755 10
0.03481302 -0.10655881 0.74595237 10
0.044443876 -0.10726094 0.74724138 10
0.055332623 -0.10742466 0.74632144 10
0.064060785 -0.10763177 0.74542314 10
0.075223334 -0.10849699 0.7486667 10
0.084773339 -0.10828096 0.74799997 10
0.094728574 -0.10897347 0.74785727 10
0.10470148 -0.10882296 0.74900001 10
0.11128 -0.10914 0.74900001 10
0.12768666 -0.10914 0.74900001 10
0.13054 -0.10914 0.74900001 10
-0.16439134 -0.093606174 0.74388629 10
-0.15467131 -0.095074825 0.74518204 10
-0.1454033 -0.095742732 0.74525583 10
-0.13495657 -0.096513562 0.74400008 10
-0.12454192 -0.096891388 0.74436843 10
-0.11497227 -0.096872345 0.74621964 10
-0.10489113 -0.096981741 0.74782759 10
-0.094587028 -0.097251981 0.74743754 10
-0.085996613 -0.098014951 0.74781245 10
-0.074640609 -0.098634541 0.74900007 10
-0.067528889 -0.098677777 0.74900001 10
-0.024966668 -0.099153332 0.74900001 10
-0.019259999 -0.099153332 0.74900001 10
0.22541332 -0.090593331 0.74900001 10
-0.16593811 -0.089023821 0.74780005 10
0.20705678 -0.080686949 0.74785727 10
0.21584849 -0.081914783 0.74728572 10
0.22515842 -0.084035128 0.74714291 10
0.23090477 -0.080283813 0.74600005 10
0.16722573 -0.071231432 0.74900001 10
0.17519204 -0.072441198 0.74716663 10
0.18560621 -0.074008577 0.74683338 10
0.19513637 -0.07412634 0.74607915 10
0.20535462 -0.075163312 0.74447727 10
0.21539825 -0.075761415 0.74302781 10
0.22514471 -0.07612922 0.7416774 10
0.23209512 -0.074419886 0.74412507 10
0.1284 -0.060633335 0.74900001 10
0.13482 -0.060633335 0.74900001 10
0.14588574 -0.062018625 0.74690908 10
0.15540169 -0.063255079 0.74622232 10
0.16482818 -0.064727619 0.74538314 10
0.17499226 -0.065280013 0.74444437 10
0.18450974 -0.065584406 0.74259436 10
0.19427888 -0.067831218 0.74156541 10
0.20324573 -0.069865718 0.74100006 10
0.23275527 -0.068250164 0.74133343 10
0.097013332 -0.050646666 0.74900001 10
0.10491507 -0.051066406 0.74754554 10
0.11528375 -0.052875698 0.74753338 10
0.12496414 -0.054330673 0.74512249 10
0.13477966 -0.05547417 0.74511641 10
0.14478867 -0.056843374 0.74246162 10
0.15384209 -0.056551326 0.74112016 10
0.16419619 -0.059044771 0.74100012 10
0.17290001 -0.059985723 0.74100012 10
0.067162856 -0.041332141 0.74825007 10
0.07495524 -0.042262826 0.74769562 10
0.085509114 -0.042948704 0.74567658 10
0.09516032 -0.044533603 0.74508524 10
0.10481308 -0.044858254 0.74414277 10
0.11466324 -0.046345308 0.74320585 10
0.1237278 -0.047479592 0.74131262 10
0.036472641 -0.031421389 0.74827272 10
0.044854019 -0.032040223 0.74757135 10
0.055330928 -0.033480786 0.74600011 10
0.064844847 -0.034586735 0.74446177 10
0.074803688 -0.035776924 0.74358541 10
0.084619157 -0.037845608 0.74152946 10
0.094565719 -0.038814291 0.74100012 10
0.0055563813 -0.021615174 0.74819994 10
0.015592415 -0.022767805 0.74696147 10
0.025038386 -0.024583777 0.74560887 10
0.034737378 -0.024821615 0.74440801 10
0.044381913 -0.025449524 0.74309516 10
0.053500552 -0.026778942 0.74142307 10
0.061397146 -0.028934287 0.74100006 10
-0.022351112 -0.011175557 0.74900001 10
-0.014124542 -0.012866301 0.74723077 10
-0.0046374151 -0.014288029 0.74623811 10
0.0049642758 -0.014906398 0.74493867 10
0.014144587 -0.015715966 0.7427631 10
0.024104627 -0.018255103 0.74128586 10
0.031757146 -0.01905429 0.74100006 10
-0.050646666 -0.00071333331 0.74900001 10
-0.044353426 -0.0023317751 0.74781811 10
-0.034654349 -0.0029674552 0.74568981 10
-0.024854695 -0.0049770591 0.74560004 10
-0.015035954 -0.0058385725 0.74274993 10
-0.0058102198 -0.006950953 0.7411924 10
0.004234286 -0.0083509535 0.74100012 10
0.010585715 -0.0091742864 0.74100006 10
-0.062875248 0.0034647626 0.74899995 10
-0.05468889 0.0026155559 0.74899989 10
-0.044827007 0.0014229254 0.7470715 10
-0.03616038 0.00070895243 0.74440002 10
0.11714286 -0.11071429 0.75000006 10
0.12142858 -0.11071429 0.75000006 10
0.13785717 -0.1107143 0.75000012 10
0.1407143 -0.11071429 0.75000006 10
0.15585715 -0.11071429 0.75000006 10
0.16586097 -0.11128747 0.75036371 10
0.17424873 -0.11116464 0.7502858 10
0.18785715 -0.1107143 0.75000012 10
0.19597042 -0.11134113 0.75072736 10
0.20453121 -0.11092977 0.75025004 10
0.21507168 -0.11092978 0.75025004 10
0.22404765 -0.11095239 0.75000012 10
-0.014285715 -0.10071429 0.75000012 10
0.0064285719 -0.10071429 0.75000006 10
0.015883079 -0.10150418 0.75015396 10
0.025033336 -0.10156287 0.75100005 10
0.035046671 -0.10156288 0.75100005 10
0.045239344 -0.10265002 0.75191301 10
0.054937605 -0.10269716 0.75072002 10
0.065660648 -0.1030743 0.75266665 10
0.075260296 -0.10392328 0.75258982 10
0.085121013 -0.10347102 0.75414616 10
0.095122285 -0.10414548 0.75422454 10
0.10502215 -0.10392382 0.75373924 10
0.11512337 -0.10512393 0.75387758 10
0.12491218 -0.10452867 0.75386781 10
0.13490301 -0.10581265 0.75512183 10
0.14466169 -0.10623255 0.75536382 10
0.155139 -0.10608444 0.75453192 10
0.16500212 -0.10621201 0.75495112 10
0.17536661 -0.10611321 0.75599986 10
0.18447348 -0.10683986 0.75550014 10
0.19522178 -0.10759655 0.75532246 10
0.20477298 -0.10739311 0.75493765 10
0.21501537 -0.10710496 0.75452787 10
0.22409831 -0.10655439 0.75466663 10
-0.15785715 -0.090714291 0.75000006 10
-0.14336114 -0.091476955 0.75040001 10
-0.13484347 -0.091893941 0.75162494 10
-0.12572743 -0.092248328 0.75210524 10
-0.11493618 -0.092000231 0.75249994 10
-0.10528 -0.09238603 0.75199991 10
-0.094967194 -0.092233002 0.75181818 10
-0.084784605 -0.093364514 0.75445235 10
-0.075150691 -0.093751289 0.75413644 10
-0.065073743 -0.094520025 0.75402147 10
-0.055247914 -0.095609829 0.7541877 10
-0.045419864 -0.095643416 0.75395751 10
-0.034846276 -0.096929498 0.75394112 10
-0.025377436 -0.095775418 0.75478792 10
-0.01500525 -0.096322432 0.75551218 10
-0.0051506618 -0.096888967 0.75458342 10
0.0049091321 -0.097187303 0.7552942 10
0.015092757 -0.097736023 0.75460708 10
0.025334429 -0.097306795 0.75620592 10
0.034995921 -0.097929664 0.75649995 10
0.045414716 -0.097688347 0.7569356 10
0.055389412 -0.098086432 0.75603831 10
0.065525845 -0.098145463 0.75752169 10
0.073718905 -0.098899424 0.75715381 10
0.083128579 -0.099031441 0.75900006 10
0.099031433 -0.099031433 0.75900006 10
0.1048143 -0.099031441 0.75900012 10
0.12722287 -0.099031433 0.75900006 10
0.19612041 -0.090695612 0.75819999 10
0.20550051 -0.09250167 0.75800008 10
0.21522848 -0.093755767 0.75788903 10
0.22391874 -0.094999872 0.75615156 10
0.23059145 -0.092525721 0.75900006 10
-0.16461796 -0.084740534 0.75508505 10
-0.15543528 -0.08629702 0.75454998 10
-0.14500524 -0.087252378 0.75471425 10
-0.1344658 -0.087152489 0.75553107 10
-0.12488046 -0.087248117 0.75641167 10
-0.114692 -0.087591171 0.75621873 10
-0.10567534 -0.088432588 0.75739998 10
-0.095069341 -0.088793628 0.75739998 10
-0.08457429 -0.088911436 0.75900006 10
-0.074454293 -0.088911436 0.75900012 10
0.15902859 -0.080960006 0.75900006 10
0.16572738 -0.081988573 0.75800008 10
0.17529069 -0.082997978 0.75659096 10
0.18492468 -0.083664767 0.7548123 10
0.19470954 -0.084941387 0.75467402 10
0.20477186 -0.08511626 0.75331563 10
0.21493496 -0.087356105 0.75312132 10
0.22425431 -0.088451907 0.75050002 10
0.12592173 -0.070550874 0.759 10
0.13574605 -0.07118573 0.75883329 10
0.14557397 -0.0742452 0.7572729 10
0.15499642 -0.074725471 0.75570458 10
0.16466025 -0.075721398 0.7526136 10
0.17508769 -0.077879444 0.75191677 10
0.18357499 -0.078829288 0.75075001 10
0.1948874 -0.079133578 0.75025004 10
0.20142859 -0.079285719 0.75000006 10
0.088911436 -0.061442863 0.75900006 10
0.094659232 -0.063063651 0.75872725 10
0.10495996 -0.062599048 0.75731581 10
0.11541628 -0.06385801 0.75632346 10
0.1249461 -0.064896792 0.75451148 10
0.13502237 -0.065076537 0.7536341 10
0.14407291 -0.067058705 0.75218183 10
0.15445527 -0.06843137 0.75106668 10
0.1607143 -0.069285721 0.75000006 10
0.05927429 -0.051322859 0.75900006 10
0.065992095 -0.052396145 0.75852931 10
0.075481534 -0.052907452 0.75734788 10
0.085331984 -0.054803945 0.75551134 10
0.09506429 -0.055810865 0.75389373 10
0.10525658 -0.056272756 0.7523948 10
0.11454505 -0.057847906 0.75169998 10
0.12119049 -0.05880953 0.75000012 10
0.027019238 -0.041903626 0.75859994 10
0.035645917 -0.042850431 0.75612491 10
0.045530245 -0.043348238 0.75634485 10
0.055565786 -0.045164742 0.75565946 10
0.064913064 -0.045965139 0.75426823 10
0.075047985 -0.047446605 0.75215369 10
0.084120855 -0.047979895 0.75066668 10
0.091428578 -0.049285717 0.75000006 10
-0.003614286 -0.031082857 0.75900006 10
0.0062762643 -0.031947333 0.75838459 10
0.015738549 -0.034364708 0.75657904 10
0.025161007 -0.035238717 0.7549386 10
0.034650356 -0.036126751 0.75223684 10
0.045067754 -0.037201501 0.7511431 10
0.053617537 -0.038082037 0.75066674 10
-0.02399886 -0.021541147 0.759 10
-0.014586758 -0.023589134 0.75615615 10
-0.0048804451 -0.024984928 0.75476605 10
0.004771932 -0.026624542 0.75417644 10
0.014284391 -0.027484884 0.75165218 10
0.022161271 -0.029311746 0.75066674 10
-0.052670348 -0.011648027 0.75757152 10
-0.045229528 -0.012891184 0.75648129 10
-0.0349342 -0.014472473 0.75590467 10
-0.025491344 -0.015614487 0.75367445 10
-0.015968531 -0.017397847 0.75156522 10
-0.0070408173 -0.018877555 0.75000012 10
-0.091080002 -0.00072285719 0.75900006 10
-0.083441086 -0.0017824126 0.75833338 10
-0.074347422 -0.0029481358 0.75729167 10
-0.064951509 -0.0040525072 0.75423688 10
-0.05532939 -0.0051200213 0.75322926 10
-0.045577113 -0.0071970015 0.75255549 10
-0.035314955 -0.0079524759 0.75209993 10
-0.028571431 -0.0092857154 0.75000006 10
-0.13083716 0.0093971435 0.75900006 10
-0.12462058 0.0089634294 0.759 10
-0.11395407 0.0086113568 0.75838459 10
-0.10452472 0.0064426046 0.75760025 10
-0.094978966 0.0054274634 0.75483704 10
-0.085356593 0.0045023137 0.75314271 10
-0.075455748 0.003704048 0.75336117 10
-0.067239754 0.0025258418 0.7505334 10
-0.057142857 0.00071428576 0.75000006 10
-0.14312571 0.017348573 0.75900006 10
-0.13401775 0.014023428 0.75899994 10
-0.12518182 0.012625477 0.75758338 10
-0.11510516 0.011911989 0.75676477 10
-0.10582361 0.011277778 0.75588888 10
-0.098423183 0.010776191 0.75433338 10
0.11668666 -0.10074192 0.7610001 10
0.13687125 -0.1013482 0.76120013 10
0.14553221 -0.10132172 0.7610001 10
0.15377033 -0.10134588 0.7610001 10
0.16514343 -0.10135692 0.76108336 10
0.17387699 -0.10126901 0.76100016 10
0.18629643 -0.10216726 0.76149994 10
0.19480056 -0.10281038 0.7614615 10
0.20567083 -0.10265349 0.76174998 10
0.21530826 -0.10221674 0.76119041 10
0.22550835 -0.10205279 0.76110518 10
-0.061604764 -0.090595245 0.76100004 10
-0.054900713 -0.090776436 0.7610001 10
-0.044036072 -0.091153696 0.76112509 10
-0.036066152 -0.092373773 0.76154548 10
-0.024931846 -0.091659002 0.76156253 10
-0.01522694 -0.091354169 0.76128584 10
-0.0048576198 -0.092007987 0.76129991 10
0.0052731172 -0.092214428 0.76131815 10
0.015244219 -0.092906803 0.76214284 10
0.025206624 -0.09231218 0.76213628 10
0.035607148 -0.093181647 0.76303828 10
0.04454932 -0.092667319 0.76356518 10
0.054697275 -0.093340568 0.76373345 10
0.064555369 -0.093109205 0.762793 10
0.075232066 -0.093740627 0.76388639 10
0.085218228 -0.094204836 0.76426011 10
0.095169209 -0.095283203 0.76475 10
0.10502633 -0.094012082 0.76504272 10
0.11473183 -0.095028065 0.76532644 10
0.12490568 -0.094865769 0.76569402 10
0.13497464 -0.094846122 0.76509798 10
0.14477757 -0.095304698 0.76513982 10
0.15480919 -0.095085241 0.76467305 10
0.16508204 -0.095520653 0.76491296 10
0.17509073 -0.095270649 0.76432693 10
0.1854749 -0.095283076 0.76371419 10
0.19486378 -0.095928088 0.76189971 10
0.20454425 -0.097766303 0.76147622 10
0.21509811 -0.098440066 0.76113337 10
0.22598079 -0.098712578 0.7610001 10
0.23119907 -0.096393339 0.76100004 10
-0.16742001 -0.080448568 0.76100004 10
-0.15418331 -0.08184617 0.76194739 10
-0.14430174 -0.082298532 0.76239133 10
-0.13513635 -0.082201548 0.76190472 10
-0.12515168 -0.082284838 0.76343471 10
-0.11509132 -0.082706794 0.76404166 10
-0.10463221 -0.083702438 0.76232344 10
-0.095113985 -0.083649077 0.76269442 10
-0.085084297 -0.084689252 0.7635777 10
-0.07492549 -0.08437445 0.76380968 10
-0.064770415 -0.085140258 0.76416332 10
-0.054607064 -0.0851814 0.76451033 10
-0.044737715 -0.085691556 0.76544189 10
-0.035039376 -0.086868428 0.76653141 10
-0.025663415 -0.087512881 0.76686221 10
-0.014861929 -0.086214513 0.76538461 10
-0.0055880048 -0.08587157 0.76540494 10
0.0051055616 -0.087156765 0.76574206 10
0.01533997 -0.087399535 0.76690012 10
0.025089946 -0.087665774 0.76733327 10
0.035140783 -0.087951958 0.76727277 10
0.044384025 -0.088300131 0.76740915 10
0.05510008 -0.087876715 0.76746166 10
0.062961653 -0.088890135 0.76790917 10
0.089848571 -0.089848571 0.76700002 10
0.095400192 -0.089848571 0.76700002 10
0.12737666 -0.083646618 0.76816678 10
0.13516098 -0.085093647 0.76713359 10
0.14508931 -0.084583849 0.76557153 10
0.15488429 -0.085200943 0.7639783 10
0.1648342 -0.086831987 0.76371849 10
0.17502631 -0.087878719 0.76257151 10
0.18399219 -0.088734291 0.76120013 10
-0.17020094 -0.075239047 0.76700002 10
-0.16469386 -0.076289214 0.76500022 10
-0.15536354 -0.07646431 0.76705426 10
-0.14521377 -0.076771475 0.7668826 10
-0.13511167 -0.076682545 0.76685739 10
-0.12541753 -0.077500142 0.76744449 10
-0.1150611 -0.078339577 0.76805007 10
-0.1046202 -0.078377694 0.76763165 10
-0.094440691 -0.079067506 0.76871437 10
-0.086176835 -0.079585403 0.76900005 10
-0.062984765 -0.079829529 0.76900005 10
-0.056393337 -0.079829529 0.76900005 10
0.085998945 -0.072148517 0.76794124 10
0.095132947 -0.072094172 0.76735294 10
0.10497057 -0.073400438 0.76696783 10
0.11528408 -0.074474074 0.76540011 10
0.12480454 -0.07589893 0.76353663 10
0.13499624 -0.076297536 0.76208812 10
0.14287889 -0.078264847 0.76154554 10
0.056574445 -0.061697617 0.76816678 10
0.065727197 -0.062689707 0.76716 10
0.075324088 -0.064186893 0.76643926 10
0.084842086 -0.064993009 0.76369578 10
0.09521924 -0.067600667 0.76319999 10
0.10506116 -0.067337774 0.76308686 10
0.11339705 -0.068009816 0.76130009 10
0.019041907 -0.050534289 0.76900005 10
0.026023153 -0.051411726 0.76706254 10
0.035335284 -0.052224364 0.76614279 10
0.045069888 -0.053308662 0.7654413 10
0.05432808 -0.055099498 0.7647956 10
0.064165458 -0.056791615 0.76296151 10
0.074338607 -0.057465114 0.76173681 10
0.081173331 -0.058705717 0.76100004 10
-0.012860274 -0.04087878 0.76842862 10
-0.0047520534 -0.042891398 0.76734388 10
0.0049732141 -0.04280303 0.76656264 10
0.015636193 -0.044655822 0.76577789 10
0.024903245 -0.045995034 0.7634688 10
0.034860056 -0.047439549 0.76352936 10
0.044578101 -0.04792916 0.7616154 10
0.050008573 -0.048559051 0.76100004 10
-0.040280953 -0.030027622 0.76900005 10
-0.03362295 -0.030826584 0.76900005 10
-0.024588719 -0.032352529 0.76800013 10
-0.014958723 -0.034627602 0.76492107 10
-0.0052843252 -0.035374731 0.76297289 10
0.0045276191 -0.036052749 0.76179302 10
0.013115672 -0.03882182 0.76127279 10
-0.062252384 -0.02123905 0.76900005 10
-0.054522619 -0.023053411 0.76841676 10
-0.044486795 -0.024743376 0.76708138 10
-0.035158601 -0.024566013 0.7632103 10
-0.02576012 -0.026396846 0.76269209 10
-0.016254621 -0.028454285 0.76147062 10
-0.0086971428 -0.02971524 0.76100004 10
-0.093575768 -0.011774434 0.76900005 10
-0.084367692 -0.013290873 0.76808351 10
-0.075257666 -0.014616578 0.76716697 10
-0.064786933 -0.015226129 0.76539588 10
-0.055154216 -0.016138831 0.76376915 10
-0.045012645 -0.018150955 0.76227784 10
-0.037591569 -0.019158095 0.76114297 10
-0.13182858 -0.00073238101 0.76900005 10
-0.12396275 -0.0023502256 0.76826328 10
-0.11460647 -0.0042889332 0.76700032 10
-0.10496546 -0.0051479638 0.76617038 10
-0.095220946 -0.0051033772 0.76427269 10
-0.085491888 -0.006545099 0.76299989 10
-0.075286761 -0.0077877939 0.76209086 10
-0.065759189 -0.0092165992 0.76114297 10
-0.15275013 0.0077124555 0.76853859 10
-0.14495462 0.0069156215 0.76740009 10
-0.13491994 0.005322028 0.76597452 10
-0.12513511 0.0040548365 0.76436836 10
-0.11527199 0.0039325259 0.76151496 10
-0.10611364 0.0019026789 0.76118743 10
-0.097842865 0.00072476192 0.76100004 10
-0.15236752 0.014358053 0.76230431 10
-0.14515381 0.013866222 0.76134366 10
-0.13803421 0.012716278 0.76100016 10
0.069022857 -0.090317145 0.77100003 10
0.073428571 -0.090317145 0.77100003 10
0.11748572 -0.090317145 0.77100003 10
0.12336 -0.090317145 0.77100003 10
0.14685714 -0.090317145 0.77100003 10
-0.080771431 -0.080037147 0.77100003 10
-0.075029217 -0.080175564 0.77233338 10
-0.06828858 -0.080037147 0.77100009 10
-0.051399998 -0.080037147 0.77100003 10
-0.044250242 -0.080778807 0.77225006 10
-0.034552697 -0.08160495 0.77195239 10
-0.024872594 -0.08236485 0.77308708 10
-0.01648874 -0.081486724 0.77247065 10
-0.0036805444 -0.081385173 0.77285725 10
0.0051499433 -0.082139879 0.77256 10
0.015461721 -0.082284808 0.77303863 10
0.025175652 -0.082303606 0.77252173 10
0.034344018 -0.082952492 0.77340633 10
0.045058768 -0.083136573 0.7733531 10
0.055192787 -0.083207801 0.77426928 10
0.065432094 -0.084301196 0.77415013 10
0.074850023 -0.084694915 0.77513069 10
0.084771417 -0.084766828 0.77402037 10
0.095072217 -0.08475212 0.773857 10
0.10530922 -0.084688194 0.77324498 10
0.11533381 -0.084909961 0.77263063 10
0.1239685 -0.08617954 0.77174997 10
-0.17017001 -0.070719525 0.77350008 10
-0.16548073 -0.071289696 0.77264714 10
-0.15475598 -0.071382061 0.77270585 10
-0.14512862 -0.071456954 0.77352381 10
-0.13472927 -0.071412794 0.77304769 10
-0.12455191 -0.072552405 0.77476668 10
-0.11467675 -0.073109433 0.77457154 10
-0.10491385 -0.074082673 0.7746073 10
-0.09518712 -0.074080214 0.77384216 10
-0.084982954 -0.075709179 0.77519459 10
-0.075022429 -0.076495275 0.77568972 10
-0.064787559 -0.076255314 0.77540016 10
-0.055788714 -0.076417729 0.77553362 10
-0.044911914 -0.078376673 0.77516675 10
-0.034335844 -0.077732146 0.7757895 10
-0.025060635 -0.077736624 0.7765556 10
-0.014742859 -0.077882595 0.77623528 10
-0.0057663498 -0.078117855 0.77626675 10
0.0052349488 -0.077305689 0.77565229 10
0.013828731 -0.078276984 0.77783334 10
0.024763519 -0.078503877 0.77707696 10
0.035335913 -0.07812494 0.77776468 10
0.044841908 -0.076321825 0.77739137 10
0.055633657 -0.07150539 0.77613348 10
0.064168312 -0.074574448 0.77694446 10
0.074586444 -0.075333424 0.77542871 10
0.083955906 -0.076486073 0.77355564 10
0.094906442 -0.076883636 0.77250004 10
0.1044943 -0.078053072 0.77118182 10
0.11161143 -0.07856857 0.77100003 10
-0.17028001 -0.06855429 0.77400005 10
-0.16484663 -0.067056343 0.77619046 10
-0.15493865 -0.066842891 0.77625811 10
-0.14508097 -0.067357995 0.77722216 10
-0.1352063 -0.067741796 0.77737498 10
-0.12492458 -0.068908572 0.77800006 10
-0.11781144 -0.068908572 0.77800006 10
0.016300954 -0.060017146 0.77800006 10
0.02568738 -0.062655248 0.77625006 10
0.034829751 -0.063579954 0.77468979 10
0.045159247 -0.064704679 0.77420026 10
0.054514773 -0.065852687 0.77283347 10
0.065023862 -0.067526631 0.77234995 10
0.074967861 -0.069457859 0.77174997 10
-0.013320001 -0.051060002 0.77700007 10
-0.0036933338 -0.0521385 0.77571434 10
0.0054497086 -0.053478535 0.77464539 10
0.015409756 -0.054869834 0.77414644 10
0.024913596 -0.056814887 0.77334493 10
0.034258019 -0.057706323 0.77324003 10
0.043464195 -0.05826534 0.77180004 10
-0.033441525 -0.041281529 0.7768001 10
-0.024358021 -0.043312598 0.77684623 10
-0.01549 -0.045455519 0.77434224 10
-0.0058407844 -0.048066109 0.77223533 10
0.0054035299 -0.048126444 0.77182347 10
0.013461906 -0.048952382 0.77100003 10
-0.072613336 -0.030379049 0.77800006 10
-0.064174131 -0.031223968 0.77750003 10
-0.054511398 -0.032630365 0.77588463 10
-0.045013253 -0.033419944 0.77477151 10
-0.034973416 -0.035811871 0.77327043 10
-0.025180874 -0.036893256 0.77269566 10
-0.018737145 -0.038575243 0.77150005 10
-0.10447428 -0.020005716 0.77800006 10
-0.093297146 -0.022534549 0.77690905 10
-0.084708579 -0.023180125 0.77634794 10
-0.074460872 -0.024997173 0.77491909 10
-0.065287814 -0.025189854 0.7732287 10
-0.055687681 -0.027475823 0.77272213 10
-0.048707627 -0.028147619 0.77100009 10
-0.13114858 -0.011114286 0.77800006 10
-0.12434268 -0.011533143 0.77620006 10
-0.11375967 -0.014099186 0.77600008 10
-0.10500038 -0.014601278 0.77439493 10
-0.095352329 -0.016782274 0.77344459 10
-0.085736394 -0.018326867 0.77289474 10
-0.074897148 -0.019825716 0.77100003 10
-0.069757141 -0.019825716 0.77100003 10
-0.15457705 -0.0027762705 0.77658337 10
-0.1444096 -0.003598413 0.77546674 10
-0.13512176 -0.0047299885 0.77437854 10
-0.12583874 -0.00697939 0.77267998 10
-0.11648877 -0.0089607621 0.7712 10
-0.15484275 0.003062183 0.77237505 10
-0.14504905 0.0017447622 0.77162498 10
-0.13804573 0.0014685716 0.77100003 10
0.052742861 -0.080971435 0.78000009 10
-0.10559184 -0.070783675 0.78000009 10
-0.092857145 -0.070571437 0.78000009 10
-0.084854364 -0.071228169 0.78041673 10
-0.074716792 -0.071977235 0.78084219 10
-0.065182678 -0.071689464 0.78106254 10
-0.054232024 -0.072275117 0.78137505 10
-0.045421187 -0.073890328 0.78116238 10
-0.035211079 -0.073148228 0.78110033 10
-0.024337552 -0.073259585 0.78230029 10
-0.015115169 -0.073219992 0.78146166 10
-0.0049470025 -0.07362891 0.78141195 10
0.0051629306 -0.072889745 0.78284627 10
0.015300603 -0.073872983 0.78250027 10
0.024436157 -0.073802017 0.78147262 10
0.034687385 -0.073373631 0.78118777 10
0.045606125 -0.073667713 0.78011554 10
0.054843336 -0.076411821 0.78000015 10
0.065619059 -0.077504769 0.78000009 10
-0.17040507 -0.063248895 0.78133339 10
-0.16533655 -0.062450446 0.78328007 10
-0.15514784 -0.061907243 0.78319997 10
-0.14467958 -0.062895887 0.78253347 10
-0.13475144 -0.063217185 0.78338712 10
-0.12517831 -0.06429819 0.78270757 10
-0.11488897 -0.064589374 0.78348953 10
-0.10501327 -0.065289021 0.78448886 10
-0.095211484 -0.065319657 0.78444463 10
-0.084595196 -0.066007584 0.78488582 10
-0.075190075 -0.065303318 0.7858445 10
-0.065356784 -0.066404 0.78635162 10
-0.055214606 -0.067765638 0.78699988 10
-0.045064762 -0.067817144 0.78599995 10
-0.03524562 -0.068174951 0.78579998 10
-0.024501694 -0.068503179 0.78755552 10
-0.014568263 -0.065290332 0.78700006 10
-0.0052389698 -0.065101542 0.78569388 10
0.0052211466 -0.064938486 0.78367358 10
0.01473519 -0.065261416 0.78189492 10
0.023750003 -0.066961519 0.78119242 10
0.034587912 -0.068434075 0.78038466 10
0.041600004 -0.069085717 0.78000003 10
-0.17035811 -0.055534288 0.78800005 10
-0.16478096 -0.057635389 0.78766668 10
-0.15506311 -0.058652394 0.78863651 10
-0.14470743 -0.057897534 0.78849995 10
-0.13579389 -0.05914817 0.78900009 10
-0.12924573 -0.059362859 0.78900003 10
-0.043755122 -0.052000128 0.787 10
-0.035045747 -0.05296912 0.78616112 10
-0.024356481 -0.054782148 0.78547221 10
-0.015076784 -0.055554762 0.78162521 10
-0.0059510549 -0.056337789 0.78125024 10
0.0043903897 -0.058165979 0.78027284 10
-0.074391432 -0.041328575 0.78900003 10
-0.064600535 -0.043186709 0.78830421 10
-0.05450964 -0.044433571 0.78663635 10
-0.04504545 -0.044616129 0.78344768 10
-0.035260808 -0.045775041 0.78166687 10
-0.025286619 -0.048190523 0.78085005 10
-0.11196285 -0.030808574 0.78900003 10
-0.10466444 -0.031274814 0.78811121 10
-0.094703406 -0.033138361 0.78637934 10
-0.084531277 -0.034108017 0.78506064 10
-0.075246662 -0.035287932 0.78338116 10
-0.065047063 -0.036357708 0.78252792 10
-0.055640679 -0.037955973 0.78141177 10
-0.045684397 -0.038709018 0.78046161 10
-0.14352286 -0.020288572 0.78900003 10
-0.13589239 -0.020772381 0.78833336 10
-0.12451468 -0.022658451 0.78811097 10
-0.11492773 -0.024584465 0.78543907 10
-0.10502095 -0.025117211 0.78207171 10
-0.095488116 -0.026610935 0.78170383 10
-0.085386842 -0.027588066 0.78041178 10
-0.078990482 -0.028476194 0.78000009 10
-0.16144668 -0.014095619 0.78700006 10
-0.15492202 -0.014225962 0.78583872 10
-0.14493303 -0.014787621 0.78421068 10
-0.13516898 -0.015076539 0.78300023 10
-0.12517197 -0.016005173 0.78263348 10
-0.11747724 -0.016804477 0.78070009 10
-0.16124047 -0.0085661914 0.78200001 10
-0.15541342 -0.0077281985 0.78078264 10
-0.14600974 -0.0085716182 0.78033334 10
-0.13569525 -0.0094095245 0.78000009 10
-0.10759047 -0.060942858 0.79000002 10
-0.091848098 -0.061733812 0.79050004 10
-0.085920177 -0.061546154 0.79072732 10
-0.06491112 -0.06164699 0.79100007 10
-0.054481216 -0.063032545 0.79056007 10
-0.045016799 -0.063008845 0.79018188 10
-0.035361711 -0.063422397 0.7911725 10
-0.024978986 -0.063574374 0.7901293 10
-0.018207619 -0.06485524 0.79000002 10
-0.17014286 -0.052177146 0.79400003 10
-0.16488262 -0.052941345 0.79324996 10
-0.15493649 -0.053683467 0.79337144 10
-0.14508402 -0.05298977 0.79451859 10
-0.13529761 -0.05519798 0.79337502 10
-0.12464172 -0.055451654 0.79507333 10
-0.11501467 -0.055292085 0.79452211 10
-0.10509784 -0.056793284 0.79458827 10
-0.094545387 -0.055723347 0.79575622 10
-0.085204586 -0.05640173 0.79568762 10
-0.074409872 -0.055843122 0.79497445 10
-0.06504631 -0.055212736 0.7941429 10
-0.055176217 -0.055179875 0.79363239 10
-0.046044029 -0.056784835 0.7925384 10
-0.035932552 -0.058348689 0.79082352 10
-0.026834924 -0.059187304 0.79000008 10
-0.17078573 -0.048578098 0.79700005 10
-0.16455127 -0.048235808 0.7972002 10
-0.15570098 -0.04822905 0.79750013 10
-0.14611001 -0.04902 0.79799998 10
-0.13908 -0.049400002 0.79800004 10
-0.12362668 -0.048893332 0.79800004 10
-0.11307112 -0.043151118 0.79799998 10
-0.10452148 -0.042320084 0.79736382 10
-0.094878703 -0.044595692 0.7958858 10
-0.085172944 -0.045242094 0.79466677 10
-0.075340725 -0.046088189 0.79321229 10
-0.065939836 -0.047340393 0.7904706 10
-0.057073474 -0.048474837 0.79000008 10
-0.15200001 -0.031160003 0.79800004 10
-0.14370342 -0.032211978 0.79714292 10
-0.13473944 -0.032928195 0.79660016 10
-0.12520197 -0.034718569 0.79567587 10
-0.11522623 -0.035031218 0.79366672 10
-0.10522024 -0.035876393 0.79324126 10
-0.094873562 -0.038308281 0.7910769 10
-0.086416356 -0.039006829 0.79016674 10
-0.16332029 -0.023444096 0.79650003 10
-0.15466267 -0.024630671 0.79430008 10
-0.14517167 -0.025281759 0.79189759 10
-0.13491699 -0.026050629 0.7921055 10
-0.12578061 -0.027779723 0.79082352 10
-0.11887619 -0.029342858 0.79000002 10
-0.16295537 -0.018178232 0.79057151 10
-0.15499048 -0.018809525 0.79000008 10
-0.14972381 -0.018809523 0.79000002 10
-0.13333333 -0.051555555 0.80000007 10
-0.12825397 -0.051555555 0.80000007 10
-0.11047619 -0.051047619 0.80000001 10
-0.10508206 -0.051968418 0.80050009 10
-0.098031752 -0.051555555 0.80000007 10
-0.085333332 -0.053333335 0.80000013 10
-0.077561907 -0.053333331 0.80000013 10
-0.17080739 -0.042891197 0.80425006 10
-0.16535732 -0.043376688 0.80370963 10
-0.1546983 -0.04345252 0.80333346 10
-0.14496206 -0.044236194 0.80310529 10
-0.13497309 -0.045154758 0.80245674 10
-0.12527068 -0.044326827 0.80094433 10
-0.11547314 -0.045349624 0.80029976 10
-0.10548732 -0.047713812 0.80030012 10
-0.097850345 -0.04887075 0.80000007 10
-0.17096668 -0.039100002 0.80500007 10
-0.16504169 -0.035420299 0.80489999 10
-0.15500809 -0.035342176 0.8031143 10
-0.14571884 -0.036639918 0.80217403 10
-0.1358954 -0.03766695 0.80135304 10
-0.12495239 -0.038857143 0.80000001 10
-0.16476661 -0.028704468 0.80123091 10
-0.15886287 -0.029231112 0.80066669 10
